ply
format ascii 1.0
element vertex 2256
property float x
property float y
property float z
property uchar red
property uchar green
property uchar blue
end_header
197 288 217 125 88 59
197 289 217 129 85 56
196 288 218 126 82 53
196 289 218 126 82 53
196 289 219 129 85 56
197 288 218 129 85 56
197 288 219 132 88 59
197 289 218 128 84 55
197 289 219 127 88 57
196 290 219 123 84 53
196 291 219 117 78 47
197 290 219 127 88 57
197 291 219 125 84 54
198 288 217 131 90 60
198 289 217 133 89 60
198 288 218 133 89 60
198 288 219 134 90 61
198 289 218 131 87 58
198 289 219 133 89 60
199 288 219 137 94 62
197 289 220 128 91 62
196 291 220 115 78 49
197 290 220 127 90 61
197 290 221 121 84 55
197 291 220 120 83 54
197 291 221 120 79 49
198 288 220 131 90 60
198 289 220 133 92 62
199 288 220 132 91 61
199 288 221 132 91 61
199 289 220 132 91 61
199 289 221 126 91 61
199 289 222 121 86 56
199 289 223 107 70 41
198 290 220 129 92 63
198 290 221 123 86 57
198 291 221 121 84 55
199 290 220 129 92 63
199 290 221 125 88 59
199 291 221 118 86 61
198 291 222 107 75 50
198 291 223 95 63 38
199 290 222 116 84 59
199 290 223 100 68 43
199 291 222 110 78 53
199 291 223 94 63 35
196 292 220 109 78 50
196 293 220 105 74 46
196 293 221 100 69 41
197 292 220 112 81 53
197 292 221 109 78 50
197 293 220 110 79 51
197 293 221 101 74 47
197 292 222 98 71 44
197 293 222 93 66 39
197 293 223 92 64 40
196 294 220 95 67 43
196 294 221 91 63 39
197 294 221 94 68 43
196 294 222 87 61 36
196 295 222 88 62 37
196 295 223 90 64 39
197 294 222 87 61 36
197 294 223 93 67 42
197 295 222 87 61 36
197 295 223 92 67 36
198 292 221 109 82 55
198 292 222 98 71 44
198 292 223 89 62 35
198 293 222 95 68 41
198 293 223 92 65 38
199 292 223 90 62 41
192 296 210 83 55 34
192 296 211 86 58 37
192 297 211 86 58 36
192 298 211 86 58 36
192 296 212 87 59 37
192 296 213 91 63 41
192 297 212 87 59 37
192 297 213 90 64 39
192 298 212 84 58 33
192 298 213 88 62 37
192 299 212 85 59 34
192 299 213 87 60 33
192 296 216 99 72 45
192 296 217 98 71 44
192 297 216 98 71 44
192 297 217 95 68 41
193 296 217 99 72 45
192 296 218 95 68 41
192 297 218 97 70 43
192 297 219 97 70 43
193 296 218 94 67 40
193 296 219 93 66 39
193 297 218 97 70 43
193 297 219 95 69 44
192 298 217 92 66 41
192 298 218 94 68 43
192 298 219 93 67 42
192 299 218 91 65 40
192 299 219 93 67 42
194 296 219 92 65 38
192 297 220 92 65 38
193 296 220 94 67 40
193 296 221 92 65 38
193 297 220 93 66 39
193 297 221 89 62 33
193 296 222 87 60 31
193 297 222 84 58 31
192 298 220 92 66 39
192 298 221 89 63 36
192 299 220 94 68 41
192 299 221 92 66 39
193 298 220 90 64 37
193 298 221 86 60 33
193 299 221 89 65 39
192 299 222 84 60 34
193 298 222 84 60 34
193 298 223 80 56 30
193 299 222 85 61 35
193 299 223 77 53 27
194 296 220 91 67 41
194 296 221 92 68 42
195 296 221 92 66 39
194 296 222 87 61 34
194 297 222 84 58 31
195 296 222 88 62 35
195 297 222 84 60 34
194 298 222 82 58 32
194 298 223 79 55 29
194 299 223 77 53 27
195 298 222 83 59 33
195 298 223 79 55 29
195 299 223 79 53 26
192 300 220 95 69 42
192 300 221 91 65 38
192 301 220 93 67 40
192 301 221 85 63 39
192 300 222 81 59 35
192 300 223 79 57 33
192 301 222 81 59 35
192 301 223 83 61 37
193 300 222 81 59 35
193 300 223 76 54 30
193 301 223 83 59 33
192 302 220 91 67 41
192 302 221 85 61 35
192 302 222 83 59 33
192 302 223 87 63 37
192 303 222 84 60 34
192 303 223 87 63 37
193 302 223 84 64 39
194 300 223 73 53 28
195 300 223 76 52 26
196 296 222 89 65 39
196 296 223 84 60 34
196 297 222 86 62 36
196 297 223 81 57 31
197 296 223 89 62 35
196 298 222 86 59 32
196 298 223 76 56 31
200 288 219 137 93 64
200 288 220 136 92 63
200 288 221 135 91 62
200 289 221 127 92 64
200 288 222 124 89 61
200 288 223 112 77 49
200 289 222 121 86 58
200 289 223 106 71 43
201 288 222 124 89 61
201 288 223 112 77 49
201 289 223 104 69 47
200 290 223 97 64 47
202 288 223 108 81 54
192 304 222 89 62 35
192 304 223 91 64 37
192 305 222 92 65 38
192 305 223 91 65 40
192 306 223 90 63 34
199 290 224 96 69 40
199 290 225 95 68 39
199 291 224 98 71 42
199 291 225 91 67 37
199 291 226 85 62 31
199 291 227 84 59 36
199 291 228 93 70 39
197 293 224 91 67 37
197 293 225 82 56 31
197 294 224 90 64 39
197 294 225 81 55 30
197 295 224 85 59 34
197 295 225 79 57 33
197 294 226 80 58 34
197 294 227 77 55 31
197 295 226 81 59 35
197 295 227 77 54 23
198 292 224 93 70 39
198 292 225 88 64 34
198 293 224 92 68 38
198 293 225 84 61 30
199 292 224 94 71 40
199 292 225 87 63 37
198 292 226 81 57 31
198 292 227 86 62 36
198 293 226 80 56 30
198 293 227 85 61 35
199 292 226 83 59 33
199 292 227 85 64 37
198 294 225 79 54 31
198 294 226 80 55 32
198 294 227 80 55 32
198 295 227 72 56 33
197 295 228 60 44 21
197 295 229 38 28 16
197 295 230 40 30 18
197 295 231 59 41 19
198 292 228 83 65 43
198 293 228 77 59 37
198 293 229 67 49 27
199 292 228 85 67 45
199 292 229 76 58 36
199 293 228 81 63 41
199 293 229 68 52 35
198 293 230 43 27 10
198 293 231 36 20 3
199 292 230 57 41 24
199 292 231 37 21 4
199 293 230 46 30 13
199 293 231 35 18 1
198 294 228 69 52 35
198 294 229 57 40 23
198 295 228 61 44 27
198 295 229 42 30 18
198 294 230 36 24 12
198 294 231 39 27 15
198 295 230 38 26 14
198 295 231 42 36 20
199 290 235 44 38 22
199 291 234 39 33 17
199 291 235 43 37 21
197 291 237 30 26 15
197 290 238 28 24 13
197 290 239 33 29 18
197 291 238 33 29 18
197 291 239 37 29 16
199 289 236 53 45 32
199 289 237 44 34 24
199 289 238 37 27 17
199 289 239 33 27 13
198 290 237 38 32 18
198 291 236 43 37 23
198 291 237 33 27 13
199 290 236 45 39 25
199 290 237 40 34 20
199 291 236 42 36 22
199 291 237 36 30 18
198 290 238 31 25 13
198 290 239 30 24 12
198 291 238 32 26 14
198 291 239 37 31 19
199 290 238 34 28 16
199 290 239 32 22 10
196 293 234 47 37 25
196 293 235 40 30 18
197 293 234 49 39 27
197 293 235 45 33 17
197 294 233 53 41 25
197 295 232 53 41 25
197 295 233 50 41 26
196 294 234 44 35 20
196 294 235 39 30 15
196 295 234 42 33 18
196 295 235 36 27 12
197 294 234 45 36 21
197 295 234 44 35 20
197 295 235 37 29 16
198 293 232 38 30 17
198 293 233 48 40 27
199 292 232 26 18 5
199 292 233 35 27 14
199 293 232 32 24 11
199 293 233 39 32 14
198 292 234 47 40 22
198 292 235 45 38 20
198 293 234 49 42 24
198 293 235 44 37 19
199 292 234 40 33 15
199 292 235 42 35 17
199 293 234 39 30 15
198 294 232 44 35 20
198 294 233 45 36 21
198 295 232 47 38 23
198 295 233 45 36 21
198 294 234 41 33 20
196 293 236 35 27 14
197 292 236 38 30 17
197 292 237 35 27 14
197 293 236 36 28 15
197 293 237 35 28 18
197 292 238 35 28 18
197 293 238 36 29 19
197 293 239 43 33 21
196 294 236 35 25 13
196 295 236 37 27 15
197 294 236 35 25 13
197 294 237 35 25 13
197 295 236 35 25 13
197 295 237 37 27 15
197 294 238 38 28 16
197 294 239 44 34 22
197 295 238 38 28 16
197 295 239 43 33 21
198 292 236 40 30 18
198 292 237 35 25 13
198 293 236 38 28 16
199 292 236 38 32 18
198 292 238 34 28 14
198 292 239 35 29 15
198 293 238 34 28 14
198 293 239 42 29 10
195 298 224 62 49 30
195 298 225 60 47 28
195 299 224 60 47 28
195 299 225 64 47 27
195 298 226 65 48 28
195 298 227 58 41 21
195 299 226 67 50 30
195 299 227 55 40 21
195 298 228 56 41 22
195 299 228 59 44 25
195 299 229 65 53 29
195 299 230 63 45 21
193 300 224 75 57 33
193 301 224 79 61 37
193 301 225 85 59 34
192 302 224 89 63 38
192 302 225 87 61 36
192 303 224 90 64 39
192 303 225 87 61 36
193 302 224 88 62 37
193 302 225 87 61 36
193 303 224 88 62 37
193 303 225 84 62 38
193 302 226 80 58 34
193 302 227 68 46 22
193 303 226 79 57 33
193 303 227 69 51 27
194 300 224 70 52 28
194 300 225 74 56 32
194 301 224 75 57 33
194 301 225 76 58 34
195 300 224 66 48 24
195 300 225 72 49 29
194 300 226 76 53 33
194 300 227 61 38 18
194 301 226 78 56 35
194 301 227 66 44 23
195 300 226 72 49 29
195 300 227 62 40 17
194 302 225 85 60 37
194 302 226 81 56 33
194 302 227 69 44 21
194 303 227 66 45 26
193 303 228 75 54 35
193 303 229 78 64 37
193 303 231 69 55 29
194 300 228 65 51 25
194 301 228 68 54 28
194 301 229 76 62 36
195 300 228 62 48 22
195 300 229 69 55 29
195 301 228 67 53 27
195 301 229 71 56 37
194 300 230 64 49 30
194 300 231 55 40 21
194 301 230 67 52 33
194 301 231 59 44 25
195 300 230 60 45 26
195 300 231 54 39 20
195 301 230 62 47 28
195 301 231 56 41 18
194 302 228 70 55 32
194 302 229 77 62 39
194 303 228 71 56 33
194 303 229 78 62 37
194 302 230 72 56 31
194 302 231 66 50 25
194 303 230 73 57 32
194 303 231 67 51 26
195 302 231 62 46 21
195 303 231 68 50 26
196 296 224 77 59 35
196 296 225 78 60 36
196 297 224 74 56 32
196 297 225 73 55 31
197 296 224 75 57 33
197 296 225 81 61 37
196 296 226 76 56 32
196 297 226 73 53 29
196 297 227 69 49 25
197 296 226 77 57 33
197 296 227 73 53 29
197 297 226 76 56 32
197 297 227 67 51 28
196 298 224 68 52 29
196 298 225 64 47 27
196 298 226 66 49 29
196 298 227 60 43 23
197 298 227 60 48 32
197 296 228 52 40 24
197 296 229 41 29 13
197 297 228 49 37 21
197 297 229 45 34 16
196 297 230 58 47 28
196 297 231 55 44 25
197 296 230 50 39 20
197 296 231 54 43 24
197 297 230 56 45 26
197 297 231 57 46 27
196 298 228 51 40 21
196 298 229 58 47 28
196 299 228 54 43 24
196 299 229 61 50 32
197 298 228 49 38 19
197 298 229 54 43 21
196 298 230 58 47 25
196 298 231 54 43 21
196 299 230 56 45 23
196 299 231 51 40 18
197 298 230 59 48 28
198 296 230 46 35 15
198 296 231 53 42 23
196 300 230 57 46 27
196 300 231 51 37 24
195 297 235 41 32 17
195 298 232 46 37 22
195 298 233 49 40 25
195 299 232 47 38 23
195 299 233 52 40 24
195 298 235 47 35 19
195 299 234 53 41 25
195 299 235 51 39 23
195 297 236 42 30 14
195 297 237 41 32 17
195 297 238 38 29 14
195 297 239 44 32 18
194 299 237 49 37 23
195 298 236 42 30 16
195 298 237 44 32 18
195 299 236 48 36 22
195 299 237 50 33 16
194 299 238 55 38 21
194 299 239 63 46 29
195 298 238 47 30 13
195 298 239 52 35 18
195 299 238 51 34 17
195 299 239 59 42 22
193 303 232 70 53 33
193 303 233 71 53 31
193 303 234 67 54 36
195 300 232 51 38 20
195 300 233 52 39 21
195 301 232 53 40 22
195 301 233 55 38 20
194 300 234 57 40 22
194 300 235 59 42 24
194 301 234 56 39 21
194 301 235 58 41 23
195 300 234 58 41 23
195 300 235 58 41 23
195 301 234 58 41 23
195 301 235 60 41 24
194 302 232 65 46 29
194 302 233 62 43 26
194 303 232 71 52 35
194 303 233 69 50 33
195 302 232 61 42 25
195 302 233 58 39 22
195 303 232 66 49 29
194 302 234 61 44 24
194 302 235 65 48 28
194 303 234 68 51 31
194 303 235 69 52 32
195 302 234 58 41 21
195 302 235 64 44 20
192 303 239 74 54 30
193 302 239 74 54 30
193 303 238 76 56 32
193 303 239 70 55 36
194 300 237 59 44 25
194 301 237 65 50 31
195 300 236 55 40 21
195 300 237 54 39 20
195 301 236 58 43 24
195 301 237 62 46 23
194 300 238 64 48 25
194 300 239 69 53 30
194 301 238 69 53 30
194 301 239 72 56 33
195 300 239 65 49 26
195 301 238 67 51 28
195 301 239 73 55 31
194 302 236 70 52 28
194 302 237 72 54 30
194 303 236 74 56 32
194 303 237 73 55 31
195 302 236 67 49 25
195 302 237 69 51 27
195 303 236 72 54 30
195 303 237 73 53 28
194 302 238 75 55 30
194 302 239 75 55 30
194 303 238 76 56 31
194 303 239 74 54 29
195 302 238 74 54 29
195 302 239 69 56 38
196 296 233 49 36 18
196 297 232 52 39 21
196 297 233 48 35 17
197 296 232 55 42 24
197 296 233 50 37 19
197 297 232 53 40 22
197 297 233 46 37 22
196 296 234 42 33 18
196 296 235 37 28 13
196 297 234 43 34 19
196 297 235 39 30 15
197 296 234 41 32 17
197 296 235 36 27 12
196 298 232 48 39 24
196 298 233 48 39 24
196 299 232 47 38 23
196 299 233 50 41 26
196 298 234 45 36 21
196 298 235 42 33 18
196 299 234 50 41 26
196 299 235 46 37 22
196 296 236 40 31 16
196 296 237 43 34 19
196 297 236 40 31 16
196 297 237 41 32 17
197 296 236 39 30 15
197 296 237 44 32 18
196 296 238 42 30 16
196 296 239 43 31 17
196 297 238 40 28 14
196 297 239 43 31 17
197 296 238 42 30 16
197 296 239 46 32 19
196 300 232 51 37 24
196 300 233 62 36 11
200 289 224 95 69 44
200 289 225 99 73 48
201 288 224 93 67 42
201 288 225 98 72 47
201 289 224 94 68 43
201 289 225 99 73 46
201 288 226 95 69 42
201 289 226 90 64 37
201 289 227 89 63 36
200 290 224 97 71 44
200 290 225 96 70 43
200 291 225 92 66 39
201 290 225 94 72 48
200 290 226 84 62 38
200 290 227 84 62 38
200 291 226 83 61 37
200 291 227 86 64 40
201 290 226 85 63 39
201 290 227 90 65 42
202 288 224 92 67 44
202 288 225 97 72 49
203 288 225 98 72 49
202 288 226 94 68 45
202 288 227 93 67 44
202 289 226 92 66 43
202 289 227 93 67 44
203 288 226 96 70 47
203 288 227 99 71 50
201 289 228 100 79 52
200 290 228 95 74 47
200 291 228 92 71 44
200 291 229 85 64 37
201 290 228 97 76 49
201 290 229 95 74 47
201 291 228 95 74 47
201 291 229 84 65 48
200 291 230 67 48 31
200 291 231 51 32 15
201 290 230 77 58 41
201 290 231 61 42 25
201 291 230 70 51 34
201 291 231 60 35 12
202 288 228 102 77 54
202 289 228 103 79 55
202 289 229 100 75 52
203 288 228 104 80 56
203 288 229 98 73 50
203 289 228 103 79 55
203 289 229 92 74 54
202 289 230 82 64 44
202 289 231 65 47 27
203 288 230 82 64 44
203 288 231 70 52 32
203 289 230 80 62 42
203 289 231 71 51 27
202 290 228 98 78 54
202 290 229 93 75 51
202 290 230 79 61 37
202 290 231 65 44 23
200 292 228 89 68 47
200 292 229 78 60 38
200 292 230 62 44 22
200 292 231 43 25 5
204 288 228 102 84 64
204 288 229 95 74 57
204 288 230 82 61 44
204 288 231 77 56 39
205 288 230 82 61 44
205 288 231 73 61 49
201 289 234 30 18 6
201 289 235 34 25 16
200 291 232 27 18 9
200 291 233 26 17 8
201 290 232 37 28 19
201 290 233 27 18 9
201 291 232 30 21 12
201 291 233 25 19 7
200 290 234 31 25 13
200 290 235 39 32 21
200 291 234 34 28 16
200 291 235 38 32 20
201 290 234 28 22 10
201 290 235 35 29 17
201 291 234 34 27 17
202 289 232 50 43 33
202 289 233 41 34 24
203 288 232 70 63 53
203 288 233 71 64 54
203 289 232 62 55 45
203 289 233 54 47 37
202 288 235 30 23 13
202 289 234 28 21 11
202 289 235 32 25 15
203 288 234 53 46 36
203 288 235 32 25 15
203 289 234 38 31 21
203 289 235 35 25 15
202 290 232 44 34 24
202 290 233 32 23 14
202 290 234 26 23 8
200 289 236 43 40 25
200 289 237 42 39 24
201 288 236 39 36 21
201 288 237 44 41 26
201 289 236 39 36 21
201 289 237 44 36 23
200 289 238 38 30 17
200 289 239 36 28 15
201 288 238 47 39 26
201 289 238 41 33 20
201 289 239 35 29 15
200 290 236 43 37 23
201 290 236 36 32 20
202 288 236 35 31 19
202 288 237 41 37 25
202 289 236 34 30 18
203 288 236 30 26 14
203 288 237 39 31 20
202 288 238 45 37 26
202 288 239 44 36 25
202 289 238 40 32 21
202 289 239 35 27 16
203 288 238 42 36 24
200 292 232 25 19 7
200 292 233 30 24 12
200 292 234 31 31 19
204 288 232 75 75 63
204 288 233 75 75 63
205 288 232 76 76 64
205 288 233 73 74 60
204 288 234 59 60 46
204 288 235 31 32 18
205 288 234 56 57 43
205 288 235 32 28 17
204 288 236 30 26 15
204 288 237 37 31 17
198 289 240 33 27 13
198 289 241 41 35 21
199 288 240 33 27 13
199 288 241 34 28 14
199 289 240 31 25 11
199 289 241 36 27 18
198 289 242 47 38 29
199 289 242 39 30 21
199 289 243 47 39 24
198 290 240 40 32 17
198 290 241 49 42 26
198 291 240 44 36 21
198 291 241 47 39 24
199 290 240 37 25 11
198 290 242 60 48 34
198 290 243 60 48 34
198 291 242 53 41 27
198 291 243 64 52 38
199 290 242 46 34 20
199 290 243 52 40 26
199 289 244 59 47 33
199 289 245 65 52 34
198 290 244 69 56 38
198 291 244 79 66 48
199 290 244 61 48 31
199 290 245 72 59 41
199 291 244 67 54 36
199 291 245 85 62 44
199 290 246 85 62 44
199 291 246 89 66 48
199 291 247 93 78 59
197 293 240 52 37 18
197 293 241 54 42 26
196 295 241 56 44 28
197 294 240 47 35 19
197 294 241 55 43 27
197 295 240 49 37 21
197 295 241 60 45 24
196 295 242 64 49 28
196 295 243 73 58 37
197 294 242 66 51 30
197 294 243 75 60 39
197 295 242 66 51 30
197 295 243 71 59 45
198 292 240 46 34 20
198 292 241 52 40 26
198 293 240 46 34 20
198 293 241 55 42 26
198 292 242 57 44 28
198 292 243 69 56 40
198 293 242 61 48 32
198 293 243 70 57 41
199 293 243 64 53 34
198 294 241 57 41 24
198 294 242 65 49 32
198 294 243 74 58 41
199 294 243 80 56 30
197 294 244 91 67 41
197 294 245 97 73 47
197 295 244 90 66 40
197 295 245 94 72 49
198 292 244 90 68 45
198 293 244 89 67 44
199 292 244 81 59 36
199 292 245 87 65 42
199 293 244 84 62 39
199 293 245 95 67 45
199 292 246 99 71 49
199 292 247 106 78 56
199 293 246 104 76 54
199 293 247 107 81 56
198 294 244 93 67 42
198 294 245 99 73 48
198 295 245 98 72 47
199 294 244 88 62 37
199 294 245 100 68 43
198 294 246 106 74 49
198 295 246 106 74 49
198 295 247 107 75 50
199 294 246 106 74 49
199 294 247 111 79 54
199 295 246 106 74 49
199 295 247 109 78 49
199 292 248 112 81 52
199 293 248 112 81 52
199 293 249 111 80 51
198 295 248 106 75 46
198 295 249 105 74 45
199 294 248 111 80 51
199 294 249 108 77 48
199 295 248 109 78 49
199 295 249 107 73 46
199 294 250 108 74 47
199 295 250 108 74 47
199 295 251 100 82 62
194 297 240 59 41 21
194 297 241 65 47 27
195 296 241 60 42 22
195 297 240 58 40 20
195 297 241 62 45 27
195 296 242 64 47 29
195 297 242 67 50 30
194 298 240 63 46 26
194 298 241 67 50 30
195 298 240 59 42 22
195 298 241 66 49 29
195 299 240 66 49 29
195 299 241 68 50 26
195 298 242 71 53 29
195 299 242 71 53 29
195 299 243 78 56 33
192 303 240 75 53 30
193 302 240 74 52 29
193 302 241 71 49 26
193 303 240 75 53 30
193 303 241 74 52 28
193 302 242 71 49 25
193 302 243 73 51 27
193 303 242 73 51 27
193 303 243 73 53 29
194 300 240 73 53 29
194 301 240 72 52 28
194 301 241 69 49 25
195 300 240 73 53 29
195 300 241 72 52 28
195 301 240 74 54 30
195 301 241 72 52 28
194 301 242 71 51 27
194 301 243 73 53 29
195 300 242 73 53 29
195 300 243 76 56 32
195 301 242 72 52 28
195 301 243 76 51 29
194 302 240 75 50 28
194 302 241 70 48 24
194 302 242 71 49 25
194 302 243 73 51 27
194 303 243 73 51 27
195 302 243 74 52 28
195 303 243 73 52 25
195 300 244 81 60 33
195 300 245 82 61 34
195 301 244 82 61 34
195 301 245 83 58 35
195 300 246 85 60 37
195 300 247 87 63 39
195 301 246 84 59 36
195 301 247 86 61 38
194 303 244 79 54 31
194 303 245 81 56 33
195 302 244 80 55 32
195 302 245 82 57 34
195 303 244 78 53 30
195 303 245 83 57 34
195 302 246 84 58 35
195 302 247 87 61 38
195 303 246 85 59 36
195 303 247 79 64 45
196 296 240 53 38 19
196 296 241 58 43 24
196 297 240 55 40 21
196 297 241 59 44 25
197 296 240 53 38 19
197 296 241 61 43 23
196 296 242 64 46 26
196 296 243 73 55 35
196 297 242 67 49 29
196 297 243 75 57 37
197 296 243 74 56 36
197 297 243 74 56 34
196 298 242 69 51 29
196 298 243 74 56 34
196 299 242 72 54 32
196 299 243 80 55 32
196 297 244 86 61 38
196 297 245 90 65 42
197 296 244 90 65 42
197 296 245 96 71 48
197 297 244 87 63 39
197 297 245 97 67 39
196 297 246 97 67 39
196 297 247 99 69 41
197 296 246 104 74 46
197 296 247 102 72 44
197 297 246 98 68 40
197 297 247 96 70 45
196 298 244 86 60 35
196 298 245 90 64 39
196 299 244 86 60 35
196 299 245 88 62 37
197 298 244 87 61 36
197 298 245 90 64 39
197 299 244 87 61 36
197 299 245 91 64 37
196 298 246 93 66 39
196 298 247 96 69 42
196 299 246 89 62 35
196 299 247 92 65 38
197 298 247 97 70 43
197 299 247 95 68 41
198 296 245 100 71 41
198 296 246 104 75 45
198 296 247 105 76 46
198 297 247 98 71 42
196 300 243 79 57 33
196 300 244 81 59 35
196 300 245 82 60 36
196 301 244 81 59 35
196 301 245 83 59 33
196 300 246 85 61 35
196 300 247 89 65 39
196 301 246 85 61 35
196 301 247 87 61 36
196 302 244 84 58 33
196 302 245 84 58 35
196 302 246 85 59 36
196 302 247 87 61 38
196 303 247 88 60 36
195 300 248 91 63 39
195 300 249 91 63 39
195 301 248 90 62 38
195 301 249 90 63 36
195 302 248 90 63 36
195 302 249 90 64 37
197 297 248 100 70 42
196 299 248 97 67 39
197 298 248 101 71 43
197 299 248 99 69 41
197 299 249 101 70 41
198 296 248 104 73 44
198 296 249 102 71 42
198 297 248 101 70 41
198 297 249 101 70 41
199 296 249 104 73 44
199 297 249 103 72 43
198 297 250 102 71 42
198 297 251 105 74 45
199 296 250 106 75 46
199 296 251 109 78 49
199 297 250 104 73 44
199 297 251 107 76 48
198 298 248 102 71 43
198 298 249 102 71 43
198 299 248 101 70 42
198 299 249 102 71 43
199 298 249 102 72 44
198 298 250 103 73 45
198 298 251 105 75 47
198 299 250 102 72 44
198 299 251 106 76 48
199 298 250 103 73 45
199 298 251 105 75 47
199 299 250 104 74 46
199 299 251 107 76 47
199 296 252 113 82 53
199 297 252 110 79 50
199 297 253 109 80 50
199 298 252 108 79 49
199 298 253 111 82 52
199 299 252 108 79 49
199 299 253 112 81 50
199 298 254 113 82 51
199 299 254 111 80 49
199 299 255 112 82 54
196 300 248 94 64 36
196 300 249 95 65 37
196 301 249 94 64 36
197 300 248 96 66 38
197 300 249 98 68 40
197 301 249 91 64 37
197 300 250 98 71 44
197 301 250 95 68 41
197 301 251 98 71 44
196 302 248 90 63 36
196 302 249 90 63 36
196 303 248 89 62 35
196 303 249 91 64 37
197 302 249 92 65 38
197 303 249 90 64 37
196 302 250 92 66 39
196 302 251 94 68 41
196 303 250 91 65 38
196 303 251 92 66 39
197 302 250 93 67 40
197 302 251 96 70 43
197 303 250 91 65 38
197 303 251 95 68 41
198 300 249 100 69 41
198 300 250 102 71 43
198 300 251 106 75 47
198 301 250 101 70 42
198 301 251 104 73 45
199 300 251 106 76 50
198 302 251 99 69 43
198 303 251 95 69 44
197 303 252 94 68 43
197 303 253 100 70 42
198 300 252 106 76 48
198 300 253 110 80 52
198 301 252 106 76 48
198 301 253 106 76 48
199 300 252 107 77 49
199 300 253 109 79 51
199 301 253 108 79 49
198 301 254 110 81 51
198 301 255 110 81 51
199 300 254 110 81 51
199 300 255 113 84 54
199 301 254 109 80 50
199 301 255 106 79 50
198 302 252 101 74 45
198 302 253 104 77 48
198 303 252 97 70 41
198 303 253 104 73 44
198 302 254 109 78 49
198 302 255 109 78 49
198 303 254 106 75 46
198 303 255 106 75 46
199 302 255 90 82 67
200 288 240 36 29 13
200 288 241 35 28 12
200 289 240 34 27 11
200 289 241 37 30 14
201 288 240 36 29 13
201 288 241 36 29 13
201 289 240 33 29 18
200 288 242 34 30 19
200 288 243 40 36 25
200 289 242 38 34 23
200 289 243 44 40 29
201 288 242 37 33 22
201 288 243 41 35 23
202 288 240 34 28 16
202 289 240 35 26 11
200 288 244 52 43 28
200 288 245 57 48 33
200 289 244 54 45 30
200 289 245 61 52 37
201 288 244 48 39 24
201 288 245 53 44 29
201 289 245 67 50 32
200 289 246 76 59 41
200 289 247 83 66 48
201 288 246 67 50 32
201 289 246 77 60 42
201 289 247 86 67 50
200 290 245 72 51 32
200 290 246 79 58 39
200 290 247 89 68 49
200 291 246 85 64 45
200 291 247 95 74 55
201 290 247 91 70 51
201 291 247 91 75 58
202 288 244 50 34 17
202 288 245 55 41 28
202 288 246 66 52 39
202 288 247 79 65 52
202 289 246 71 57 44
202 289 247 88 69 53
200 292 247 103 77 52
201 289 248 103 75 51
200 291 248 107 79 55
200 291 249 109 81 57
201 290 248 105 77 53
201 290 249 111 83 59
201 291 248 109 81 57
201 291 249 117 82 54
201 290 250 119 84 56
201 291 250 112 84 60
202 288 248 107 79 55
202 288 249 116 88 64
202 289 248 110 82 58
202 289 249 117 89 65
203 288 248 113 85 61
203 288 249 121 93 69
203 289 249 125 90 62
202 289 250 124 89 61
203 288 250 127 92 64
203 289 250 124 89 61
203 289 251 120 86 61
202 290 248 112 78 53
202 290 249 121 86 58
202 290 250 122 87 59
202 290 251 119 84 56
202 291 250 120 85 57
202 291 251 120 85 57
203 290 250 122 87 59
203 290 251 119 84 56
203 291 251 118 84 56
202 291 252 118 84 56
202 291 253 116 82 54
203 290 252 118 84 56
203 290 253 118 84 56
203 291 252 118 84 56
203 291 253 119 84 54
203 290 254 119 84 54
203 291 254 119 84 54
203 291 255 117 83 55
200 292 248 114 80 52
200 292 249 114 80 52
200 293 248 115 81 53
200 293 249 116 82 54
201 292 249 113 82 53
200 292 250 112 81 52
200 293 250 113 82 53
200 293 251 113 82 53
201 292 250 114 83 54
201 292 251 115 84 55
201 293 250 112 81 52
201 293 251 116 83 52
200 294 249 111 80 51
200 294 250 110 79 50
200 294 251 112 81 52
200 295 250 108 77 48
200 295 251 112 81 50
202 292 250 116 85 54
202 292 251 115 84 53
200 293 252 114 83 52
201 292 252 115 84 53
201 293 252 114 83 52
201 293 253 116 83 52
200 294 252 116 83 52
200 295 252 114 81 50
200 295 253 113 80 49
201 294 252 117 84 53
201 294 253 115 82 51
201 295 252 116 83 52
201 295 253 115 82 51
201 294 254 113 80 49
201 295 254 114 81 50
201 295 255 113 80 49
202 292 252 117 84 53
202 292 253 115 82 51
202 293 252 116 83 52
202 293 253 115 82 51
203 292 253 117 82 52
202 292 254 117 82 52
202 293 254 117 82 52
202 293 255 118 83 53
203 292 254 117 82 52
203 292 255 117 82 52
203 293 254 117 82 52
203 293 255 117 84 53
202 294 253 116 81 51
202 294 254 116 81 51
202 294 255 115 80 50
202 295 254 114 79 49
202 295 255 113 78 48
203 294 255 117 81 55
204 288 250 126 90 64
204 288 251 121 85 59
204 289 250 124 88 62
204 289 251 121 83 58
204 290 251 121 84 57
204 288 252 122 85 58
204 289 252 121 84 57
204 289 253 120 83 56
205 288 252 121 84 57
205 288 253 122 85 58
205 289 252 121 84 57
205 289 253 121 86 56
204 289 254 120 85 55
205 288 254 120 85 55
205 289 254 121 86 56
205 289 255 118 83 55
204 290 252 119 84 56
204 290 253 119 84 54
204 290 254 120 85 55
204 290 255 119 84 54
204 291 254 120 85 55
204 291 255 119 84 54
205 290 254 120 85 55
205 290 255 118 84 56
206 288 252 118 84 56
206 288 253 120 84 58
206 288 254 118 82 56
206 288 255 118 82 56
206 289 254 120 84 58
206 289 255 118 82 56
207 288 254 119 83 57
207 288 255 121 84 55
204 292 255 118 83 53
200 296 251 111 80 49
200 296 252 112 81 50
200 296 253 109 78 47
200 297 252 112 81 50
200 297 253 109 78 47
201 296 253 112 78 50
200 296 254 112 78 50
200 296 255 111 77 49
200 297 254 113 79 51
200 297 255 112 78 50
201 296 254 112 78 50
201 296 255 111 77 49
201 297 255 112 77 49
200 298 253 111 80 49
200 298 254 112 81 50
200 298 255 108 77 46
200 299 254 112 81 50
200 299 255 112 81 50
201 298 255 112 78 50
202 296 255 107 81 56
192 304 224 89 63 38
192 304 225 86 60 35
192 305 224 87 61 36
192 305 225 85 59 34
193 304 224 89 63 38
193 304 225 84 62 38
192 304 226 81 59 35
192 305 226 78 56 32
192 305 227 74 52 28
193 304 226 80 58 34
193 304 227 74 52 28
193 305 226 79 57 33
193 305 227 75 53 29
192 306 224 83 61 37
192 306 225 78 58 34
192 306 226 73 53 29
192 306 227 68 52 27
192 304 229 76 60 35
192 305 228 71 55 30
192 305 229 72 56 31
193 304 228 75 59 34
193 304 229 76 60 35
193 305 228 73 57 32
193 305 229 75 57 33
192 304 230 70 52 28
192 304 231 73 55 31
192 305 230 70 52 28
192 305 231 71 53 29
193 304 230 71 53 29
193 304 231 73 55 31
193 305 231 72 55 29
192 306 228 72 55 29
192 306 229 70 52 28
192 306 230 68 50 26
192 306 231 70 52 28
192 307 230 70 52 28
192 307 231 71 53 29
194 304 229 78 62 37
194 304 230 71 55 30
194 304 231 71 53 31
192 308 231 71 53 31
192 305 232 72 54 32
192 305 233 69 51 29
193 304 232 70 52 30
193 304 233 73 55 33
193 305 232 72 54 32
193 305 233 73 53 29
192 305 234 73 53 29
192 305 235 76 56 32
193 304 234 75 55 31
193 304 235 75 55 31
193 305 234 75 55 31
193 305 235 74 56 32
192 306 232 72 54 30
192 306 233 69 51 27
192 307 232 70 52 28
192 307 233 68 50 26
192 306 234 70 52 28
192 306 235 72 54 30
192 307 234 67 49 25
192 307 235 71 53 29
193 306 235 73 55 31
193 307 235 73 53 29
194 304 234 74 54 30
194 304 235 72 55 29
193 304 236 75 58 32
193 304 237 74 57 31
193 305 236 76 59 33
193 305 237 76 56 32
192 304 239 75 55 31
193 304 238 76 56 32
193 304 239 75 55 31
193 305 238 76 56 32
193 305 239 76 54 30
192 307 236 72 50 26
192 307 237 72 50 26
193 306 236 75 53 29
193 306 237 74 52 28
193 307 236 73 51 27
193 307 237 72 52 27
193 306 238 76 56 31
193 306 239 77 57 32
193 307 238 76 56 31
193 307 239 78 58 31
194 304 236 79 59 32
194 304 237 76 56 29
194 305 237 75 58 32
194 304 238 73 56 30
194 305 238 74 57 31
194 305 239 75 55 30
194 306 238 77 57 32
194 306 239 74 56 34
192 308 232 68 50 28
192 308 233 68 50 28
192 309 232 69 51 29
192 309 233 71 54 28
192 308 234 68 51 25
192 308 235 68 51 25
192 309 234 71 54 28
192 309 235 70 53 27
192 310 234 71 54 28
192 310 235 70 53 27
192 308 236 69 52 26
192 308 237 70 53 27
192 309 236 70 53 27
192 309 237 71 54 28
193 308 237 71 51 26
192 308 238 72 52 27
192 309 238 72 52 27
192 309 239 71 51 26
193 308 238 74 54 29
193 308 239 76 56 31
193 309 238 72 52 27
193 309 239 73 53 28
192 310 236 73 53 28
192 310 237 73 53 28
192 311 236 73 53 28
192 311 237 70 54 29
192 310 238 70 54 29
192 310 239 68 52 27
192 311 238 68 52 27
192 311 239 67 49 25
192 312 236 70 52 28
192 312 237 69 51 27
192 313 236 70 52 28
192 313 237 69 51 29
192 312 238 67 49 27
192 312 239 65 47 25
192 313 238 68 50 28
192 313 239 68 52 27
192 314 237 70 53 27
192 314 238 70 53 27
192 314 239 71 54 28
192 315 238 69 52 26
192 315 239 74 52 28
192 304 240 76 54 30
193 304 240 77 55 31
193 304 241 77 55 31
193 305 240 77 55 31
193 305 241 79 54 31
193 304 242 78 53 30
193 304 243 76 51 28
193 305 242 78 53 30
193 305 243 75 55 30
193 306 240 78 58 33
193 306 241 78 58 33
193 307 240 79 59 34
193 307 241 76 59 33
193 306 242 74 57 31
193 306 243 75 58 32
193 307 242 75 58 32
193 307 243 78 56 32
194 304 243 74 52 28
194 305 242 76 54 30
194 305 243 75 53 29
194 306 241 76 54 30
194 307 241 79 59 34
194 306 242 75 55 30
194 306 243 76 56 31
194 307 242 77 57 33
193 304 244 74 54 30
193 305 244 76 55 34
193 306 244 76 55 34
193 307 244 77 55 32
194 304 244 76 54 31
194 304 245 79 57 34
194 305 244 76 54 31
194 305 245 78 56 33
195 304 244 76 54 31
195 304 245 78 56 33
195 305 244 76 54 31
195 305 245 78 56 32
194 305 246 79 57 33
195 304 246 81 59 35
195 304 247 82 60 36
195 305 246 81 59 35
195 305 247 81 60 39
194 306 244 76 55 34
194 306 245 78 57 36
194 307 244 76 55 34
194 307 245 78 56 32
194 306 246 79 57 33
194 306 247 82 60 36
194 307 246 80 58 34
194 307 247 80 58 34
195 306 246 79 57 33
195 306 247 83 61 37
195 307 247 81 61 36
192 309 240 71 51 26
193 308 240 77 57 32
193 308 241 78 58 33
193 309 240 74 54 29
193 309 241 75 55 30
193 308 242 77 57 32
193 308 243 76 56 31
193 309 242 76 56 31
193 309 243 73 56 30
192 310 240 67 50 24
192 310 241 68 51 25
192 311 240 66 49 23
192 311 241 68 51 25
193 310 240 67 50 24
193 310 241 70 53 27
193 311 241 71 49 25
192 311 242 71 49 25
192 311 243 72 50 26
193 310 242 77 55 31
193 310 243 77 55 31
193 311 242 73 51 27
193 311 243 74 52 29
193 308 244 76 54 31
193 309 244 76 54 31
193 309 245 76 56 31
193 310 244 76 56 31
193 310 245 76 56 31
193 311 244 76 56 31
193 311 245 76 54 30
194 308 244 77 55 31
194 308 245 79 57 33
194 309 244 76 54 30
194 309 245 77 56 29
194 308 246 80 59 32
194 308 247 76 55 28
194 309 246 79 58 31
194 309 247 75 54 27
195 308 247 79 57 33
194 310 245 77 55 31
194 311 245 76 56 29
194 310 246 77 57 30
194 310 247 73 53 26
194 311 246 77 57 30
194 311 247 74 54 29
196 304 247 87 63 35
193 305 249 88 64 40
193 305 250 87 63 37
192 306 249 81 57 31
192 307 249 75 51 25
193 306 249 84 60 34
193 307 249 79 54 31
192 306 250 86 61 38
192 306 251 90 65 42
192 307 250 81 56 33
192 307 251 88 64 40
193 306 250 87 63 39
193 306 251 89 64 41
193 307 251 91 65 40
194 305 249 89 63 38
195 304 248 84 58 33
195 304 249 86 60 35
195 305 248 87 61 36
195 305 249 89 62 35
194 305 250 87 60 33
195 305 250 87 63 37
194 306 249 86 62 36
194 307 248 83 59 33
194 307 249 83 59 33
195 306 248 88 64 38
195 306 249 88 64 38
195 307 248 86 62 36
195 307 249 85 60 37
194 306 250 88 64 40
194 306 251 89 64 41
194 307 251 90 65 42
195 306 250 87 63 39
195 306 251 89 64 41
195 307 251 89 63 38
192 306 252 90 64 39
192 307 252 89 63 38
193 306 252 91 65 40
193 307 252 90 64 39
193 307 253 90 64 37
194 305 253 93 67 40
195 305 253 93 69 43
194 305 254 93 69 43
195 305 254 95 69 44
194 306 253 91 65 40
194 307 252 90 64 39
194 307 253 90 64 39
195 306 252 93 67 42
195 306 253 92 66 41
195 307 252 91 65 40
195 307 253 90 64 39
194 306 254 89 63 38
194 307 254 89 63 38
195 306 254 91 65 40
195 307 254 88 64 40
192 308 249 73 48 25
193 308 249 73 51 27
192 308 250 73 51 27
192 308 251 83 61 37
193 308 250 78 56 32
193 308 251 85 63 39
194 308 248 74 52 28
194 308 249 75 53 29
194 309 248 72 50 26
194 309 249 71 49 25
195 308 248 81 56 33
194 308 250 84 59 36
194 308 251 90 65 42
194 309 250 78 53 30
194 309 251 85 63 40
194 310 248 72 50 27
194 310 249 71 49 26
194 311 248 74 52 29
194 311 249 72 52 27
194 310 250 71 51 26
194 310 251 78 58 33
194 311 250 71 51 26
194 311 251 73 53 28
195 311 251 78 54 28
192 308 252 84 60 34
193 308 252 87 63 37
193 308 253 88 62 35
194 308 252 90 64 37
194 308 253 90 64 37
194 309 252 87 61 34
194 309 253 88 62 35
195 308 252 90 64 37
195 308 253 91 65 38
195 309 253 88 64 38
195 308 254 88 64 38
195 309 254 88 64 38
195 309 255 88 64 40
194 310 252 81 56 33
194 310 253 85 60 37
194 311 252 77 52 29
195 310 252 84 59 36
195 310 253 86 61 38
195 311 252 79 54 31
195 311 253 84 59 36
194 310 254 86 61 38
194 310 255 86 61 38
194 311 254 83 58 35
194 311 255 85 60 37
195 310 254 87 63 39
195 310 255 86 61 38
195 311 254 86 61 38
195 311 255 87 61 36
196 304 248 86 60 35
196 304 249 87 61 36
196 305 249 87 59 35
196 304 250 91 63 39
196 304 251 92 64 40
196 305 250 90 62 38
196 305 251 93 65 41
197 304 251 93 63 39
196 306 250 90 60 36
196 306 251 92 65 36
196 304 252 95 68 39
196 305 252 94 67 38
196 305 253 95 68 39
197 304 252 94 67 38
197 304 253 96 69 40
197 305 252 95 68 39
197 305 253 94 69 39
197 305 254 95 70 40
197 305 255 96 70 43
196 306 252 93 67 40
196 306 253 94 68 41
196 307 253 91 65 38
197 306 253 91 70 41
196 306 254 91 70 41
196 306 255 92 71 42
196 307 254 86 65 36
196 307 255 89 68 39
197 306 254 92 71 42
197 306 255 92 71 42
197 307 255 94 68 41
198 304 253 96 70 43
198 305 253 98 68 40
198 304 254 102 72 44
198 304 255 102 72 44
198 305 254 100 70 42
198 305 255 98 71 41
196 308 253 89 65 39
196 308 254 88 64 38
196 308 255 87 63 37
196 309 254 87 63 37
196 309 255 88 64 38
196 310 255 85 65 41
192 312 240 68 48 24
192 312 241 71 51 27
192 313 240 72 52 28
192 313 241 74 54 30
192 312 242 72 52 28
192 312 243 71 51 27
192 313 242 75 55 31
192 313 243 75 55 31
193 312 243 71 51 27
193 313 242 73 53 29
193 313 243 73 53 28
192 314 240 74 54 29
192 314 241 75 55 30
192 314 242 75 55 30
192 314 243 75 55 30
192 315 242 74 54 29
192 315 243 75 55 30
193 314 242 75 55 30
193 314 243 78 53 30
192 312 244 78 53 30
192 313 244 77 52 29
193 312 244 78 53 30
193 312 245 77 52 29
193 313 244 78 53 30
193 313 245 77 57 30
193 312 246 75 55 28
193 312 247 75 55 28
193 313 246 78 58 31
193 313 247 77 57 32
192 314 244 76 56 31
192 314 245 76 56 31
192 315 244 76 56 31
192 315 245 78 58 33
193 314 244 75 55 30
193 314 245 76 54 30
192 314 246 80 58 34
192 315 246 80 58 34
192 315 247 80 58 34
193 314 246 79 57 33
193 314 247 77 55 31
193 315 246 80 58 34
193 315 247 81 56 34
194 312 245 76 55 28
194 312 246 76 55 28
194 312 247 75 55 30
192 316 241 73 53 28
192 317 241 73 53 29
192 316 242 74 54 30
192 316 243 77 57 33
192 317 242 74 54 30
192 317 243 76 54 30
192 316 244 77 55 31
192 316 245 78 56 32
192 317 244 75 53 29
192 317 245 78 56 32
192 316 246 79 57 33
192 316 247 80 58 34
192 317 246 78 56 32
192 317 247 78 56 32
193 316 247 81 59 35
193 317 247 78 58 33
192 318 245 74 54 29
192 319 245 71 49 26
192 318 246 78 56 33
192 318 247 77 55 32
192 319 246 74 52 29
192 319 247 76 54 30
193 312 248 75 53 29
193 313 248 76 54 31
192 315 248 78 56 33
193 314 248 76 54 31
193 314 249 78 56 33
193 315 248 77 55 32
193 315 249 80 55 32
193 314 250 81 56 33
193 314 251 81 56 33
193 315 250 82 57 34
193 315 251 80 58 34
194 312 248 75 53 29
194 312 249 75 53 29
194 313 248 75 53 29
194 313 249 76 56 32
194 312 250 73 53 29
194 312 251 73 53 29
194 313 250 76 56 32
194 313 251 75 55 31
195 312 251 74 54 30
195 313 251 74 52 29
194 314 248 76 54 31
194 314 249 80 55 32
194 314 250 80 55 32
194 314 251 80 55 32
194 315 251 82 57 34
193 315 252 82 57 34
193 315 253 79 59 35
194 313 252 75 55 31
194 313 253 74 54 30
195 312 252 74 54 30
195 312 253 77 57 33
195 313 252 74 54 30
195 313 253 76 55 28
195 312 254 81 60 33
195 312 255 83 62 35
195 313 254 78 57 30
195 313 255 78 58 34
194 314 252 77 57 33
194 314 253 76 56 32
194 315 252 80 60 36
194 315 253 79 59 35
195 314 253 75 55 31
195 315 253 77 57 32
194 315 254 79 59 34
194 315 255 81 61 36
195 314 254 76 56 31
195 314 255 78 58 33
195 315 254 78 58 33
195 315 255 82 60 36
192 316 248 80 58 34
192 317 248 80 58 34
192 317 249 79 57 33
193 316 248 79 57 33
193 316 249 78 56 32
193 317 248 80 58 34
193 317 249 81 56 33
192 317 250 80 55 32
192 317 251 82 57 34
193 316 250 83 58 35
193 316 251 82 57 34
193 317 250 81 56 33
193 317 251 79 57 33
192 318 248 78 56 32
192 318 249 78 56 32
192 319 248 77 55 31
192 319 249 80 58 34
192 318 250 78 56 32
192 318 251 81 59 35
192 319 250 81 59 35
192 319 251 80 58 34
193 318 251 81 59 35
193 319 251 83 58 36
193 316 252 80 55 33
193 316 253 80 55 33
193 317 252 81 56 34
193 317 253 78 57 30
192 319 252 79 58 31
193 318 252 80 59 32
193 318 253 79 58 31
193 319 252 80 59 32
193 319 253 82 61 32
193 318 254 83 62 33
193 318 255 82 61 32
193 319 254 84 63 34
193 319 255 86 62 36
194 316 253 82 58 32
194 317 253 78 56 32
194 316 254 79 57 33
194 316 255 79 57 33
194 317 254 81 59 35
194 317 255 81 59 35
195 316 255 81 59 35
195 317 255 82 57 34
194 318 253 79 58 31
194 318 254 82 61 34
194 318 255 83 62 35
194 319 255 78 61 44
224 263 192 53 36 19
224 263 193 45 28 11
225 263 192 56 39 22
225 263 193 52 25 16
224 263 194 55 28 19
224 263 195 71 44 35
225 262 194 59 32 23
225 262 195 75 48 39
225 263 194 60 33 24
225 263 195 71 47 37
226 262 193 57 33 23
226 263 192 59 35 25
226 263 193 53 29 19
227 262 193 59 35 25
227 263 192 57 33 23
227 263 193 59 31 20
226 262 194 67 39 28
226 262 195 82 54 43
226 263 194 66 38 27
227 262 194 72 44 33
227 262 195 98 55 39
224 262 196 100 57 41
224 262 197 117 74 58
224 263 196 102 59 43
224 263 197 116 73 57
225 262 196 105 62 46
225 262 197 124 81 65
225 263 196 105 63 41
224 262 198 126 84 62
224 262 199 128 86 64
224 263 198 123 81 59
224 263 199 128 86 64
225 262 198 131 89 67
225 262 199 130 88 66
225 263 199 132 87 68
227 261 196 120 75 56
227 261 197 137 91 75
226 262 196 112 66 50
226 262 197 130 84 68
227 262 196 116 70 54
227 262 197 135 87 65
226 262 198 138 90 68
226 262 199 136 88 66
226 263 199 135 87 65
227 262 198 138 90 68
227 262 199 134 91 72
228 261 195 95 52 33
229 261 195 81 53 42
228 262 193 63 35 24
228 263 192 59 31 20
228 263 193 60 32 21
229 262 193 60 32 21
229 263 192 60 32 21
229 263 193 62 28 16
228 262 194 77 43 31
228 262 195 92 58 46
229 262 194 72 38 26
229 262 195 86 52 40
229 263 194 74 40 28
230 261 195 83 49 37
231 261 195 79 49 37
230 263 192 65 35 23
230 263 193 59 29 17
231 263 192 72 42 31
231 263 193 59 29 17
230 262 194 64 34 22
230 262 195 80 50 38
230 263 194 67 37 25
231 262 194 64 34 22
231 262 195 79 49 37
231 263 194 76 33 16
228 261 196 116 73 56
228 261 197 134 91 74
229 261 196 110 67 50
229 261 197 138 84 58
228 261 198 148 94 68
229 261 198 144 93 72
228 262 196 119 68 47
228 262 197 135 84 63
229 262 197 132 81 60
229 263 197 126 76 53
228 262 198 143 93 70
228 262 199 144 94 71
229 262 198 140 90 67
229 262 199 141 91 68
229 263 198 132 84 64
230 261 196 112 64 44
230 261 197 130 82 62
231 261 196 111 63 43
231 261 197 131 79 55
230 261 198 143 91 67
231 261 198 135 88 68
230 262 196 109 62 42
230 262 197 127 80 60
230 263 197 120 73 53
231 262 196 107 60 40
231 262 197 125 78 58
231 263 197 118 72 49
230 262 198 135 89 66
230 262 199 135 89 66
230 263 198 128 82 59
230 263 199 133 87 64
231 262 198 129 83 60
231 262 199 128 82 59
231 263 198 123 77 54
231 263 199 120 81 63
224 263 200 123 84 66
224 263 201 117 79 60
225 263 200 123 84 66
225 263 201 105 79 62
224 263 202 99 73 56
224 263 203 85 59 42
225 263 202 96 70 53
225 263 203 94 58 36
226 262 200 120 84 62
226 263 200 122 86 64
226 263 201 115 79 57
227 262 200 126 90 68
227 262 201 116 80 58
227 263 200 125 89 67
227 263 201 111 84 67
226 262 203 88 61 44
226 263 202 98 71 54
226 263 203 88 61 44
227 262 203 87 60 43
227 263 202 100 73 56
227 263 203 80 66 55
224 261 206 45 31 20
224 261 207 37 23 12
225 261 206 47 33 22
225 261 207 39 25 12
224 262 205 56 42 29
224 263 204 68 54 41
224 263 205 59 45 32
225 262 205 55 41 28
225 263 204 70 56 43
225 263 205 56 46 34
224 262 206 47 37 25
224 262 207 39 29 17
225 262 206 47 37 25
225 262 207 40 30 18
225 263 206 52 40 28
226 261 207 37 25 13
227 261 207 37 19 7
226 262 204 67 49 37
226 262 205 57 39 27
226 263 204 72 54 42
226 263 205 61 43 31
227 262 204 67 49 37
227 262 205 56 38 26
227 263 204 74 56 44
227 263 205 56 42 31
226 262 206 48 34 23
226 262 207 41 27 16
226 263 206 51 37 26
227 262 206 46 32 21
227 262 207 38 24 13
227 263 206 49 35 24
227 263 207 59 22 3
228 262 200 129 92 73
228 262 201 117 80 61
228 263 201 119 82 63
229 262 200 125 88 69
229 262 201 114 77 58
229 263 200 124 87 68
229 263 201 112 81 63
228 262 202 101 70 52
228 263 202 102 71 53
228 263 203 96 65 47
229 262 202 98 67 49
229 263 202 99 68 50
229 263 203 97 58 40
230 262 200 124 85 67
230 263 200 122 83 65
230 263 201 113 74 56
231 262 200 118 80 61
231 263 200 117 79 60
231 263 201 104 75 61
230 263 202 95 66 52
230 263 203 85 56 42
231 263 202 93 64 50
231 263 203 78 56 41
228 263 204 79 57 42
228 263 205 63 41 26
229 263 204 75 53 38
229 263 205 58 42 29
228 262 207 38 22 9
228 263 206 49 33 20
228 263 207 41 25 12
229 262 207 37 21 8
229 263 206 49 33 20
229 263 207 43 24 10
230 263 204 69 50 36
230 263 205 59 40 26
231 263 204 68 49 35
231 263 205 60 44 27
230 263 206 49 33 16
230 263 207 45 29 12
231 262 207 44 28 11
231 263 206 51 35 18
231 263 207 47 31 18
224 264 192 56 40 27
224 264 193 43 27 14
224 265 192 60 44 31
224 265 193 45 29 16
225 264 192 55 42 33
224 264 194 53 29 19
226 264 192 56 39 29
224 264 199 122 84 63
229 264 192 65 37 26
230 264 192 70 42 31
231 264 192 90 51 33
230 264 198 117 79 60
230 264 199 122 83 65
231 264 198 112 73 55
231 264 199 118 77 59
224 264 200 123 82 64
224 264 201 107 80 61
224 264 202 98 71 52
224 264 203 82 63 48
224 264 204 75 56 40
224 264 205 75 44 26
231 264 200 111 80 62
231 264 201 106 75 57
231 265 200 110 79 61
231 265 201 102 73 59
230 264 202 97 68 54
230 264 203 88 59 45
231 264 202 94 65 51
231 264 203 86 57 43
231 265 202 95 66 52
231 265 203 80 61 45
230 264 205 63 44 28
230 265 205 66 47 32
231 264 204 71 52 36
231 264 205 63 44 28
231 265 204 72 53 37
231 265 205 65 48 32
230 264 206 53 36 19
230 265 206 57 40 23
231 264 206 56 39 22
231 264 207 48 31 15
231 265 206 59 42 25
231 265 207 55 32 16
232 263 192 75 52 36
232 263 193 57 34 18
233 263 193 56 30 16
232 262 194 60 34 20
232 262 195 75 49 35
232 263 194 62 36 22
232 263 195 73 47 33
233 263 194 56 30 16
233 263 195 67 41 27
234 263 195 66 40 26
235 263 195 75 38 20
232 262 196 96 59 41
232 262 197 113 76 58
232 263 196 94 57 39
232 263 197 110 73 55
233 262 196 92 55 37
233 262 197 111 74 56
233 263 196 90 53 35
233 263 197 116 69 49
232 262 199 125 78 58
232 263 198 121 74 54
232 263 199 121 74 54
233 263 198 120 73 53
233 263 199 120 77 60
234 263 196 95 52 35
234 263 197 113 70 53
235 263 196 98 55 38
235 263 197 118 71 53
234 263 198 123 76 58
235 263 198 126 80 64
232 262 200 119 73 57
232 263 200 117 71 55
232 263 201 105 72 57
232 263 202 95 62 47
232 263 203 80 54 39
232 263 204 73 47 32
232 263 205 61 45 28
232 262 207 48 32 16
232 263 206 54 38 21
232 263 207 49 33 16
233 263 207 55 34 13
232 264 192 87 66 45
232 264 193 61 40 19
233 264 192 89 68 47
233 264 193 61 40 19
233 265 192 106 85 64
233 265 193 74 48 31
233 264 194 58 32 15
233 264 195 69 40 26
233 266 192 125 102 84
234 264 193 56 33 15
234 265 192 96 73 55
234 265 193 66 43 25
235 264 193 49 26 8
235 265 192 75 52 34
235 265 193 58 31 20
234 264 194 53 26 15
234 264 195 65 38 27
235 264 194 51 24 13
235 264 195 65 38 27
235 265 194 49 28 9
234 266 192 110 89 70
235 266 192 95 58 42
232 264 199 110 73 57
233 264 198 109 72 56
233 264 199 115 74 56
235 264 196 95 54 36
235 264 197 110 67 48
234 264 198 115 72 53
234 264 199 121 78 59
235 264 198 118 75 56
235 264 199 127 84 65
235 265 199 108 82 67
236 265 192 68 42 27
236 265 193 53 27 12
237 265 192 61 35 20
237 265 193 48 24 12
236 264 194 49 25 13
236 264 195 64 40 28
236 265 194 49 25 13
236 265 195 63 39 27
237 264 195 67 43 31
237 265 194 52 28 16
237 265 195 70 44 29
236 266 192 76 50 35
237 266 192 69 46 30
238 265 192 54 31 15
238 265 193 47 23 11
238 265 194 52 28 16
238 265 195 68 44 32
239 265 194 56 32 20
239 265 195 72 46 32
238 266 192 63 37 23
238 266 193 52 26 12
238 267 192 72 46 32
239 266 192 57 31 17
239 266 193 52 26 12
239 267 192 65 41 27
238 266 194 55 32 17
239 266 194 63 30 15
236 264 196 92 59 44
236 264 197 104 71 56
237 264 196 95 62 47
237 264 197 107 74 59
237 265 196 91 53 30
236 264 198 120 82 59
236 264 199 127 89 66
236 265 199 123 85 62
237 264 198 124 86 63
237 264 199 127 89 66
237 265 198 117 79 56
237 265 199 122 85 66
238 264 196 99 62 43
238 264 197 114 77 58
238 265 196 91 54 35
238 265 197 110 73 54
239 265 196 98 61 42
239 265 197 119 81 58
238 264 198 126 88 65
238 264 199 128 90 67
238 265 198 122 84 61
238 265 199 124 86 63
239 265 198 128 90 67
239 265 199 122 90 65
239 266 198 119 87 62
239 266 199 123 84 66
232 264 200 113 74 56
232 264 201 108 69 51
232 265 200 112 73 55
232 265 201 107 68 50
233 264 200 115 76 58
233 265 200 111 72 54
233 265 201 102 69 52
232 264 202 96 63 46
232 264 203 87 54 37
232 265 202 98 65 48
232 265 203 90 57 40
233 265 202 98 65 48
233 265 203 93 57 35
234 264 200 118 82 60
234 265 200 114 78 56
234 265 201 111 75 53
235 264 200 123 87 65
235 265 200 120 84 62
235 265 201 113 82 62
234 265 202 103 72 52
234 265 203 95 64 44
235 265 202 107 76 56
235 265 203 97 69 48
235 266 202 105 77 56
235 266 203 94 71 55
232 264 204 72 49 33
232 264 205 67 44 28
232 265 204 75 52 36
232 265 205 69 46 30
233 265 204 76 53 37
233 265 205 65 49 32
232 264 206 56 40 23
232 264 207 51 35 18
232 265 206 59 43 26
232 265 207 53 37 20
233 264 207 54 38 21
233 265 206 60 44 27
233 265 207 59 38 21
232 266 204 76 55 38
232 266 205 70 49 32
233 266 204 77 56 39
233 266 205 70 51 34
232 266 206 62 43 26
233 266 206 67 46 29
234 265 204 81 60 43
234 265 205 72 51 34
235 265 204 80 63 45
234 264 207 57 40 22
234 265 206 63 46 28
234 265 207 59 42 24
235 265 207 63 42 25
234 266 204 83 62 45
234 266 205 75 54 37
235 266 204 86 65 48
235 266 205 74 57 39
234 266 206 66 49 31
234 266 207 61 44 26
235 266 206 67 50 32
235 266 207 72 41 20
236 264 200 121 90 69
236 264 201 117 86 65
236 265 200 121 90 69
236 265 201 115 84 63
237 264 200 119 88 67
237 264 201 111 80 59
237 265 200 118 87 66
237 265 201 110 82 60
236 265 202 105 77 55
237 265 202 100 73 52
236 266 202 104 77 56
236 266 203 96 69 48
237 266 202 100 73 52
237 266 203 96 65 44
238 264 200 116 85 64
238 265 200 115 84 63
238 265 201 108 77 56
239 265 200 113 82 61
239 265 201 102 75 56
238 265 202 96 69 48
238 266 201 105 78 57
239 266 200 108 81 60
239 266 201 101 76 56
238 266 202 97 72 52
238 266 203 90 65 45
239 266 202 96 71 51
239 266 203 85 68 51
236 265 207 57 40 23
237 265 207 59 38 21
236 266 204 85 64 47
236 266 205 77 56 39
237 266 204 82 61 44
237 266 205 74 56 42
236 266 206 67 49 35
236 266 207 60 42 28
237 266 206 69 51 37
237 266 207 60 44 29
238 265 207 55 39 24
239 265 207 57 38 21
238 266 204 81 62 45
238 266 205 76 57 40
239 266 204 81 62 45
239 266 205 78 59 42
238 266 206 71 52 35
238 266 207 63 44 27
239 266 206 73 54 37
239 266 207 59 45 32
224 257 211 36 22 9
225 257 210 32 18 5
225 257 211 32 23 16
224 259 209 16 7 0
225 259 209 23 14 5
224 258 210 22 13 4
224 258 211 28 19 10
224 259 210 19 10 1
225 258 210 26 17 8
225 258 211 29 20 11
225 259 210 26 16 7
226 257 210 30 20 11
226 257 211 33 23 14
227 257 210 30 20 11
227 257 211 37 24 15
226 259 209 31 18 9
227 259 209 31 18 10
226 258 210 31 18 10
226 259 210 30 17 9
227 258 210 31 18 10
227 258 211 35 22 14
227 259 210 32 18 7
224 256 213 60 46 35
224 257 212 43 29 18
224 257 213 54 40 29
225 256 212 48 34 23
225 256 213 59 45 34
225 257 212 44 30 19
225 257 213 60 39 22
224 256 214 80 59 42
224 256 215 88 67 50
224 257 214 76 55 38
225 256 214 78 60 50
226 256 212 51 33 23
226 256 213 64 46 36
226 257 212 46 28 18
227 256 212 53 35 25
227 256 213 63 45 35
227 257 212 49 30 16
226 256 214 81 62 48
227 256 214 73 63 53
224 260 208 25 15 5
224 260 209 21 11 1
224 261 208 28 18 8
224 261 209 23 13 3
225 260 208 28 18 8
