ply
format ascii 1.0
element vertex 2420
property float x
property float y
property float z
property uchar red
property uchar green
property uchar blue
end_header
99 349 112 2 8 4
99 349 113 2 8 4
99 348 114 1 7 3
99 348 115 1 7 3
99 349 114 1 7 3
99 349 115 1 7 3
98 350 112 3 9 5
98 350 113 3 9 5
98 351 112 2 8 4
98 351 113 2 8 4
99 350 112 3 9 5
99 350 113 2 8 4
99 351 113 2 8 4
99 350 114 2 8 4
99 350 115 1 7 3
99 351 114 2 8 4
100 344 112 3 9 5
100 344 113 5 11 7
100 345 113 6 12 8
100 344 114 7 13 9
100 344 115 7 13 9
100 345 114 7 13 9
100 345 115 6 12 8
101 344 114 4 10 6
101 344 115 3 12 7
100 346 113 5 10 6
100 346 114 4 9 5
100 347 115 3 9 5
100 344 117 5 11 7
100 345 116 5 11 7
100 345 117 5 11 7
100 344 118 6 12 8
100 345 118 5 11 7
101 344 118 8 14 10
101 344 119 8 14 10
101 345 118 6 12 8
101 345 119 5 11 7
100 346 116 5 11 7
100 346 117 3 9 5
100 347 116 3 9 5
100 347 117 3 9 5
100 346 118 3 9 5
100 347 118 3 9 5
101 346 118 5 11 7
101 346 119 5 11 7
101 347 118 3 9 5
101 347 119 2 11 8
102 344 118 7 16 13
102 344 119 7 16 13
102 345 119 5 14 11
103 344 119 7 16 13
103 345 119 6 15 10
102 346 119 3 12 7
102 347 118 3 12 7
102 347 119 2 11 6
103 346 119 5 14 9
103 347 119 3 12 7
100 348 115 0 9 4
100 349 115 1 7 3
100 350 114 1 7 3
100 350 115 0 6 2
100 351 114 2 8 4
100 351 115 1 7 3
101 350 115 1 7 3
101 351 115 1 8 1
100 348 116 2 9 2
100 348 117 3 10 3
100 349 116 2 9 2
100 349 117 4 11 4
101 348 117 3 10 3
101 349 116 2 9 2
101 349 117 4 11 4
100 348 118 3 10 3
101 348 118 3 10 3
101 349 118 3 10 3
100 350 116 1 8 1
100 350 117 3 10 3
101 350 116 2 9 2
101 350 117 4 11 4
101 351 116 2 8 4
102 349 116 3 9 5
102 349 117 4 10 6
103 349 117 3 9 5
102 348 118 3 9 5
102 348 119 3 9 5
102 349 118 3 9 5
103 348 118 4 10 6
103 348 119 4 10 6
103 349 118 3 10 3
102 350 116 3 10 3
102 350 117 4 11 4
102 351 116 3 10 3
102 351 117 4 11 4
103 350 117 3 10 3
103 351 116 4 11 4
103 351 117 3 10 3
103 350 118 1 10 5
104 336 115 6 15 10
104 337 115 6 17 13
104 338 115 5 16 12
104 339 115 5 14 11
104 336 116 6 15 12
104 337 116 7 16 13
105 336 116 7 16 13
105 337 116 8 17 14
104 338 116 6 15 12
104 338 117 6 15 12
104 339 116 5 14 11
104 339 117 6 15 12
105 338 116 7 16 13
105 338 117 7 16 13
105 339 117 6 15 12
106 336 116 7 16 13
106 336 117 6 15 12
106 337 116 8 17 14
106 337 117 8 17 14
107 336 117 10 19 16
107 337 117 8 17 14
106 338 116 9 18 15
106 338 117 9 18 15
106 339 117 8 17 14
107 338 117 9 18 15
107 339 117 9 18 15
104 340 116 6 15 12
104 340 117 7 16 13
104 341 116 7 16 13
104 341 117 7 16 13
105 340 117 7 16 13
105 341 117 8 17 14
104 342 117 8 17 14
105 342 117 7 16 13
104 342 118 6 15 12
104 343 118 6 15 12
104 343 119 7 16 13
105 342 118 8 17 14
105 343 118 8 17 14
105 343 119 8 17 14
106 340 117 8 17 14
106 341 117 8 17 14
107 340 117 9 18 15
107 341 117 9 17 17
107 341 118 9 18 15
106 342 117 7 16 13
107 342 117 9 18 15
106 342 118 8 17 14
106 343 118 8 17 14
107 342 118 9 18 15
107 343 118 9 18 15
107 343 119 9 17 17
108 336 117 10 18 18
108 337 117 10 18 18
109 336 117 9 17 17
109 337 117 10 18 18
109 336 118 10 18 18
109 337 118 10 18 18
108 338 117 9 17 17
108 339 117 9 17 17
109 338 117 9 17 17
109 339 117 9 17 17
109 338 118 10 18 18
109 339 118 10 18 18
110 336 117 10 18 18
110 336 118 10 18 18
110 337 118 10 18 18
111 336 118 10 18 18
111 336 119 10 18 18
111 337 118 10 18 18
111 337 119 10 18 18
110 338 117 10 18 18
110 339 117 9 17 17
111 338 117 10 18 18
111 339 117 9 17 17
110 338 118 10 18 18
110 339 118 10 18 18
111 338 118 10 18 18
108 340 117 9 17 17
108 341 117 9 17 17
109 340 116 9 17 17
109 340 117 9 17 17
109 341 116 11 19 19
109 341 117 9 17 17
108 341 118 10 18 18
109 341 118 9 17 17
108 342 117 9 17 17
109 342 117 9 17 17
108 342 118 9 17 17
108 343 118 9 17 17
108 343 119 9 17 17
109 342 118 9 17 17
109 343 118 7 17 17
110 340 116 10 20 20
110 340 117 8 18 18
110 341 116 10 20 20
110 341 117 9 19 19
111 340 117 8 18 18
111 341 117 10 18 18
110 341 118 8 18 17
110 342 116 10 20 19
110 342 117 9 19 18
110 343 116 10 20 19
110 343 117 10 20 19
111 342 117 10 20 19
111 343 117 10 20 19
110 342 118 9 19 18
110 343 118 8 18 17
111 342 118 9 19 18
111 343 118 11 20 17
108 343 120 10 19 16
108 343 121 7 16 13
109 342 120 10 19 16
109 342 121 8 17 14
109 343 120 11 20 17
109 343 121 10 21 17
110 342 120 8 19 15
110 342 121 10 21 17
110 343 120 9 20 16
110 343 121 10 21 17
111 342 120 9 20 16
111 342 121 9 20 16
111 343 120 9 20 16
111 343 121 10 18 18
104 344 119 5 14 13
104 345 119 7 16 15
105 344 118 9 17 17
105 344 119 6 15 14
105 345 119 9 18 13
104 346 119 5 14 9
104 347 119 4 13 8
105 346 119 9 18 13
105 347 119 4 12 12
106 344 118 9 17 17
106 344 119 8 16 16
106 345 119 8 16 16
107 344 118 9 17 17
107 344 119 9 17 17
107 345 119 8 19 13
106 346 119 9 20 14
106 347 119 9 20 14
107 347 119 8 19 15
104 348 118 2 13 9
104 348 119 1 12 8
104 349 118 1 12 8
104 349 119 1 12 8
105 348 119 2 13 9
105 349 118 6 17 13
105 349 119 4 10 6
104 350 117 3 9 5
104 351 117 2 8 4
105 351 117 5 14 9
104 350 118 1 10 5
104 351 118 1 10 5
105 350 118 2 11 6
105 350 119 1 10 5
105 351 118 1 10 5
105 351 119 1 10 5
106 348 119 9 18 13
106 349 119 3 12 7
107 348 119 9 18 15
106 350 118 3 12 9
106 350 119 1 10 7
106 351 118 2 11 8
106 351 119 1 10 7
107 350 119 2 11 8
107 351 119 1 10 7
108 344 118 9 18 15
108 344 119 10 19 16
108 345 119 10 19 16
109 344 118 8 17 14
109 344 119 8 17 14
109 345 119 9 19 18
110 344 117 10 20 19
111 344 117 10 20 19
110 344 118 8 18 17
110 344 119 8 18 17
110 345 119 9 19 18
111 344 118 10 20 19
111 344 119 9 19 18
111 345 119 9 20 16
106 345 120 9 20 16
107 345 120 8 19 15
107 345 121 6 17 13
106 346 120 10 21 17
106 347 120 4 15 11
107 346 120 9 20 16
107 346 121 6 17 13
107 347 120 9 15 13
106 348 120 5 11 9
106 349 120 4 10 8
107 348 120 6 12 10
107 348 121 5 11 9
107 349 120 5 11 9
107 349 121 5 11 7
106 350 120 4 10 6
107 350 120 4 10 6
107 350 121 5 11 7
107 351 120 4 10 6
107 351 121 6 12 10
107 350 122 5 11 9
107 351 122 4 13 10
108 344 120 9 18 15
108 344 121 7 16 13
108 345 120 9 18 15
108 345 121 6 15 12
109 344 120 10 19 16
109 344 121 10 19 16
109 345 120 10 19 16
109 345 121 9 18 15
108 346 120 9 18 15
108 346 121 7 16 13
108 347 120 7 16 13
108 347 121 7 16 13
109 346 121 8 17 14
109 347 121 8 16 16
110 344 120 10 18 18
110 344 121 11 19 19
110 345 120 10 18 18
110 345 121 10 18 18
111 344 120 9 17 17
111 344 121 9 17 17
111 345 120 9 17 17
111 345 121 9 17 17
110 345 122 8 16 16
111 344 122 10 18 18
111 345 122 9 17 17
111 345 123 8 16 16
110 346 121 9 17 17
110 347 121 9 17 17
110 346 122 6 15 14
110 347 122 7 16 15
111 346 122 7 16 15
111 346 123 8 16 16
111 347 122 7 16 15
111 347 123 10 19 16
108 348 120 6 15 12
108 348 121 4 13 10
108 349 121 4 13 10
109 348 121 6 15 12
108 348 122 6 15 12
108 349 122 5 14 11
109 348 122 7 16 13
109 349 122 6 15 12
109 349 123 7 13 9
108 350 121 6 12 8
108 350 122 6 12 8
108 351 122 6 12 8
109 350 122 7 13 9
109 350 123 6 12 8
109 351 122 6 12 8
109 351 123 6 12 8
110 348 121 9 15 11
110 348 122 9 15 11
110 348 123 10 16 12
110 349 122 9 15 11
110 349 123 8 14 10
111 348 122 10 16 12
111 348 123 11 17 13
111 349 123 9 16 9
110 350 123 7 14 7
110 351 123 6 13 6
111 350 123 8 15 8
111 351 123 5 14 9
110 350 124 5 14 9
110 351 124 6 15 10
111 350 124 5 14 9
111 351 124 5 14 11
115 321 107 10 18 19
115 322 107 8 17 20
112 320 109 10 19 22
112 321 109 10 19 22
113 320 109 11 19 20
112 320 110 11 19 20
112 321 110 11 19 20
112 321 111 12 20 22
113 320 110 11 19 20
113 321 110 10 18 19
113 321 111 10 20 20
112 322 110 10 20 20
112 322 111 10 20 20
112 323 111 10 20 20
113 322 111 10 20 20
115 321 108 9 19 19
114 320 110 10 20 20
114 320 111 9 19 19
114 321 110 10 20 20
114 321 111 10 20 20
115 320 110 10 20 20
115 320 111 9 19 19
115 321 111 9 19 19
114 323 108 9 19 19
114 323 109 9 19 19
115 322 108 10 20 20
115 322 109 10 20 20
115 323 108 10 20 20
115 323 109 9 19 19
114 322 111 10 20 20
115 323 110 11 19 20
113 326 110 11 19 20
113 326 111 10 18 19
113 327 110 11 19 20
113 327 111 10 20 20
114 324 108 8 18 18
114 324 109 9 19 19
114 325 109 9 19 19
115 324 108 10 20 20
115 324 109 10 20 20
115 325 109 11 19 19
114 324 110 10 18 18
114 325 110 10 18 18
115 324 110 10 18 18
115 324 111 11 19 19
115 325 110 11 19 19
115 325 111 10 20 20
115 326 109 10 20 20
114 326 110 9 19 19
114 326 111 10 20 20
114 327 110 10 20 20
114 327 111 10 20 20
115 326 110 10 20 20
115 326 111 10 20 20
115 327 110 10 20 20
115 327 111 10 20 20
116 320 107 9 19 19
116 321 107 9 19 19
117 320 107 9 19 19
117 321 107 10 20 19
116 322 107 10 20 19
117 322 107 8 20 19
118 320 107 8 20 19
119 320 107 9 19 18
116 320 108 9 19 18
116 321 108 10 20 19
116 321 109 10 20 19
117 320 108 10 20 19
117 321 108 10 20 19
117 321 109 9 19 19
116 320 110 10 20 20
116 320 111 10 20 20
117 320 111 9 19 19
116 322 108 10 20 20
116 322 109 10 20 20
116 323 108 10 20 20
116 323 109 10 20 20
117 322 108 9 19 19
117 322 109 9 19 19
117 323 108 10 20 20
117 323 109 10 20 20
116 322 110 10 20 20
116 323 110 10 20 20
117 322 110 10 20 20
117 322 111 10 20 20
117 323 110 9 19 19
117 323 111 8 20 19
118 320 108 9 21 20
118 320 109 9 21 20
118 321 108 10 22 22
118 321 109 10 22 22
119 320 108 8 20 19
119 320 109 10 22 22
119 321 108 9 21 20
119 321 109 10 20 20
118 320 111 10 20 20
118 321 110 11 21 22
119 320 110 11 21 22
119 320 111 11 21 22
119 321 110 11 21 22
119 321 111 11 21 22
118 322 108 11 21 22
118 322 109 12 22 23
118 323 109 11 21 22
119 322 108 10 20 20
119 322 109 11 21 22
119 323 109 11 19 20
118 322 110 11 19 20
118 322 111 11 19 20
118 323 110 11 19 20
118 323 111 11 19 20
119 322 110 11 19 20
119 322 111 12 20 22
119 323 110 11 19 20
119 323 111 10 20 20
116 324 109 10 20 20
116 325 109 10 20 20
117 324 109 9 19 19
117 325 109 9 19 19
116 324 110 10 20 20
116 324 111 10 20 20
116 325 110 9 19 19
116 325 111 9 19 19
117 324 110 9 19 19
117 324 111 9 19 19
117 325 110 9 19 19
117 325 111 10 18 18
116 326 109 10 18 18
117 326 109 10 20 20
116 326 110 9 19 19
116 326 111 10 20 20
116 327 110 9 19 19
116 327 111 10 20 20
117 326 110 9 19 19
117 326 111 9 19 19
117 327 110 9 19 19
117 327 111 11 19 20
118 324 109 11 19 20
118 325 109 11 19 20
119 324 109 10 20 20
118 324 110 10 20 20
118 324 111 10 20 20
118 325 110 10 20 20
118 325 111 9 19 19
119 324 110 10 20 20
119 324 111 10 20 20
119 325 110 10 20 20
119 325 111 10 20 20
118 326 110 10 20 20
118 326 111 9 19 19
119 326 111 10 19 22
115 328 111 9 18 23
116 328 111 11 19 20
120 320 107 9 17 18
120 321 107 11 19 20
121 320 107 10 18 19
121 321 107 11 19 19
122 320 106 11 19 19
122 320 107 11 19 19
122 321 107 11 19 19
123 320 106 10 18 18
123 320 107 10 18 18
123 321 107 9 17 17
120 320 108 11 19 19
120 320 109 11 19 19
120 321 108 11 19 19
120 321 109 10 18 18
121 320 108 11 19 19
121 320 109 11 19 19
121 321 108 11 19 19
121 321 109 11 19 20
120 320 110 12 20 22
120 320 111 11 19 20
120 321 110 11 19 20
120 321 111 10 18 19
121 320 110 12 20 22
121 320 111 11 19 20
121 321 111 11 19 22
120 322 109 10 18 21
120 323 109 9 17 20
121 322 109 11 19 22
121 323 109 10 19 22
120 322 111 9 18 21
120 323 110 9 18 21
121 322 110 9 18 21
121 322 111 9 18 21
121 323 110 10 18 19
122 320 108 11 19 20
122 320 109 11 19 20
122 321 108 11 19 20
122 321 109 11 19 20
123 320 108 10 18 19
123 321 108 10 18 19
123 321 109 10 19 22
122 320 110 11 20 23
122 320 111 11 20 23
122 321 111 10 19 22
123 320 111 11 19 22
122 322 109 10 18 21
123 322 108 12 20 23
123 322 109 10 18 19
122 322 110 11 19 20
122 323 110 10 18 19
123 322 110 10 18 19
123 323 110 10 18 19
123 323 111 10 18 19
120 324 110 10 18 19
120 324 111 11 19 20
120 325 111 10 18 19
121 324 110 10 18 19
121 324 111 11 19 20
121 325 111 9 19 19
120 326 111 10 18 19
122 324 110 10 18 19
122 324 111 10 18 19
122 325 111 10 18 19
123 324 110 10 18 19
123 324 111 12 20 22
123 325 111 10 20 20
124 320 107 10 20 20
125 320 107 9 19 19
125 321 107 10 19 22
126 320 107 9 18 21
126 321 107 10 19 22
127 320 106 10 19 22
127 320 107 9 18 21
127 321 107 10 18 19
124 320 108 9 17 18
124 321 108 9 17 18
124 321 109 11 19 20
125 320 108 11 19 20
125 321 108 11 19 20
125 321 109 10 18 21
124 322 108 10 18 21
124 322 109 11 19 22
125 322 109 11 19 22
125 323 109 11 19 22
124 322 110 11 19 22
124 323 110 11 19 22
124 323 111 11 19 22
125 322 110 12 20 23
125 323 110 10 18 21
125 323 111 10 19 22
126 320 108 10 19 22
126 320 109 10 19 22
126 321 108 9 18 21
126 321 109 10 19 22
127 320 108 9 18 21
127 320 109 10 19 22
127 321 108 10 19 22
127 321 109 11 19 22
126 321 110 11 19 22
127 321 110 10 19 22
126 322 109 10 19 22
126 323 109 10 19 22
127 322 109 10 19 22
126 322 110 10 19 22
126 323 110 10 19 22
126 323 111 10 19 22
127 322 110 9 18 21
127 323 110 9 18 21
127 323 111 9 18 21
124 324 111 11 20 23
124 325 111 11 20 23
125 324 110 10 19 22
125 324 111 9 20 22
126 324 110 9 20 22
126 324 111 9 20 22
127 324 111 9 19 19
112 322 112 10 20 20
112 323 112 10 20 20
112 323 113 10 20 20
113 322 112 11 21 22
113 323 112 10 20 20
113 323 113 10 20 20
114 321 112 10 20 20
115 320 112 9 19 19
115 321 112 10 18 18
114 322 112 12 20 20
114 322 113 11 19 19
114 323 112 11 19 19
114 323 113 11 19 19
115 322 112 11 19 19
115 322 113 11 19 19
115 323 113 10 20 20
114 323 114 10 20 20
115 323 114 11 19 20
112 324 112 11 19 20
112 324 113 10 18 19
112 325 113 10 18 19
113 324 113 10 18 19
112 324 114 10 18 19
112 325 114 10 18 19
113 324 114 10 18 19
113 325 114 11 19 20
113 325 115 10 20 20
112 326 114 9 19 19
112 326 115 10 20 20
112 327 114 9 19 19
112 327 115 10 20 20
113 326 114 9 19 19
113 326 115 10 20 20
113 327 115 10 20 20
114 324 113 10 20 20
114 324 114 9 19 19
114 325 114 9 19 19
114 325 115 9 19 19
115 324 114 10 20 20
115 325 114 10 20 20
115 325 115 9 19 19
115 327 112 10 20 20
114 326 115 10 20 20
114 327 115 9 19 19
115 326 115 9 19 18
112 327 116 9 19 18
113 327 116 10 20 20
115 325 116 9 19 19
114 326 116 10 20 20
114 327 116 9 19 19
115 326 116 9 19 19
115 327 116 10 18 18
116 320 112 11 19 19
116 321 112 11 19 19
116 321 113 11 19 19
117 320 112 11 19 19
117 321 112 11 19 19
117 321 113 9 19 19
116 322 112 10 20 20
116 322 113 10 20 20
116 323 113 10 20 20
117 322 113 9 19 19
117 323 113 10 19 22
116 323 114 10 19 22
117 322 114 10 19 22
117 323 114 10 20 20
118 320 112 10 20 20
118 320 113 10 20 20
118 321 112 10 20 20
118 321 113 10 20 20
119 320 112 10 20 20
119 320 113 10 20 20
119 321 112 11 21 22
119 321 113 11 19 20
118 321 114 11 19 20
119 321 114 10 18 19
118 322 113 10 18 19
119 322 112 12 20 22
119 322 113 10 18 19
119 323 112 11 19 20
119 323 113 10 20 20
118 322 114 11 21 22
118 323 114 10 20 20
118 323 115 10 20 20
119 322 114 10 20 20
119 323 114 10 20 20
119 323 115 10 20 20
116 325 112 10 20 20
117 324 112 9 19 19
117 325 112 10 19 22
116 324 114 9 18 21
116 324 115 9 18 21
116 325 114 9 18 21
116 325 115 9 18 21
117 324 114 10 19 22
117 324 115 10 19 22
117 325 115 10 19 22
116 326 112 10 19 22
116 327 112 10 19 22
117 326 112 10 19 22
117 326 115 10 20 20
118 324 112 9 19 19
118 325 112 10 20 20
119 324 112 9 19 19
119 325 112 10 20 20
119 325 113 10 20 20
118 324 114 10 20 20
118 324 115 10 20 20
118 325 115 10 20 20
119 324 114 10 20 20
119 324 115 10 20 20
119 325 115 9 19 19
118 326 112 10 20 20
119 326 112 10 20 20
119 326 113 11 21 22
118 326 115 10 20 20
119 326 115 9 19 19
116 325 116 10 20 20
117 325 116 11 19 19
116 326 116 11 19 19
116 327 116 11 19 19
116 327 117 11 19 19
117 326 116 11 19 19
117 327 116 11 19 19
117 327 117 10 20 20
119 325 116 9 18 21
118 326 116 9 18 21
118 326 117 9 18 21
118 327 116 9 18 21
118 327 117 9 18 21
119 326 116 8 17 20
119 326 117 9 18 21
119 327 116 8 17 20
119 327 117 9 18 21
112 328 115 9 19 18
115 328 112 9 19 19
112 328 116 9 19 19
112 329 116 10 20 20
112 329 117 9 19 19
113 328 116 9 19 19
113 328 117 10 20 20
113 329 116 9 19 19
113 329 117 10 20 19
112 330 116 9 19 18
112 330 117 10 20 19
112 331 116 9 19 18
112 331 117 10 20 19
113 330 117 10 20 19
113 331 117 11 19 19
113 331 118 10 20 19
114 328 116 9 19 18
114 328 117 10 20 19
114 329 117 10 20 19
115 328 116 10 20 19
115 328 117 9 19 18
115 329 117 10 18 18
114 330 117 11 19 19
114 331 117 11 19 19
115 330 117 9 19 19
114 330 118 10 20 20
114 331 118 9 19 19
115 330 118 10 20 20
115 331 118 10 20 20
115 331 119 9 19 18
112 332 116 10 20 19
112 332 117 9 19 18
112 333 116 10 20 19
112 333 117 10 20 19
113 332 117 10 18 19
112 332 118 10 18 19
112 333 118 9 17 18
113 332 118 10 18 19
113 333 118 11 19 20
113 333 119 11 19 19
112 334 118 10 18 18
112 334 119 10 18 18
112 335 118 10 18 18
112 335 119 10 18 18
113 334 118 11 19 19
113 334 119 10 18 18
113 335 119 10 18 18
114 332 118 10 18 18
114 332 119 10 18 18
114 333 118 10 18 18
114 333 119 11 19 19
115 332 118 10 18 18
115 332 119 10 18 18
115 333 119 10 18 18
114 335 117 10 18 18
115 335 117 10 18 18
114 334 119 11 19 19
114 335 118 10 18 18
114 335 119 11 19 19
115 334 119 10 18 18
115 335 118 10 18 18
115 335 119 9 19 18
116 328 112 10 18 19
116 328 116 11 19 20
116 328 117 11 19 20
116 329 117 10 18 19
117 328 117 10 18 19
117 329 117 9 19 18
116 329 118 9 19 18
117 328 118 9 19 18
117 329 118 7 19 18
116 330 117 9 19 19
116 330 118 9 19 19
116 331 118 9 19 19
116 331 119 9 19 19
117 330 118 9 19 19
117 330 119 9 19 19
117 331 118 9 19 19
117 331 119 10 18 19
118 328 117 11 19 20
118 329 117 10 18 19
119 328 117 10 18 19
119 329 117 9 19 19
118 328 118 8 18 18
118 329 118 8 18 18
119 329 118 8 18 18
118 330 118 8 18 18
118 330 119 8 18 18
118 331 119 9 19 19
119 330 118 8 18 18
119 330 119 9 19 19
119 331 119 10 18 19
116 332 119 10 18 19
116 333 119 10 18 19
117 332 119 10 18 19
117 333 119 9 19 19
116 334 117 9 19 19
116 335 117 9 19 19
117 334 117 8 18 18
117 335 117 9 19 19
116 334 118 9 19 19
116 334 119 9 19 19
116 335 118 8 18 18
116 335 119 9 19 19
117 334 118 9 19 19
117 334 119 8 18 18
118 333 116 8 18 18
118 333 117 9 19 19
119 333 116 9 19 19
119 333 117 10 18 18
118 332 119 10 18 18
118 333 118 10 18 18
118 333 119 9 17 17
119 333 118 10 18 18
119 333 119 8 18 17
118 334 116 9 19 18
118 334 117 9 19 18
118 335 117 9 19 18
119 334 116 8 18 17
119 334 117 9 19 18
119 335 117 10 18 18
118 334 118 9 17 17
118 334 119 9 17 17
118 335 118 9 17 17
119 334 118 9 17 17
119 335 118 9 17 17
114 334 120 10 18 18
114 335 120 10 18 18
115 334 120 10 18 18
115 335 120 10 20 19
118 331 120 9 19 18
118 331 121 8 18 17
119 331 120 8 18 17
119 331 121 9 17 17
116 332 120 10 18 18
116 333 120 10 18 18
117 332 120 10 18 18
117 333 120 8 18 17
116 334 120 9 19 18
116 335 120 9 19 18
117 334 120 9 17 17
118 332 120 10 18 18
118 332 121 9 17 17
118 333 120 9 17 17
119 332 120 9 17 17
119 332 121 9 17 17
119 333 120 9 17 17
119 333 121 8 18 18
118 334 120 9 17 18
120 320 112 11 19 20
120 321 112 11 19 20
120 321 113 11 19 20
121 320 112 10 18 19
121 321 112 11 19 20
121 321 113 11 21 22
120 322 112 10 20 20
120 322 113 10 20 20
120 323 112 10 20 20
120 323 113 9 19 19
121 322 112 10 20 20
121 322 113 10 20 20
121 323 112 10 20 20
121 323 113 11 21 22
120 322 114 10 20 20
120 323 114 9 19 19
121 322 114 12 22 23
121 323 114 11 21 22
121 323 115 11 19 20
122 320 112 11 19 20
122 321 112 11 19 20
122 321 113 11 19 20
123 320 112 11 19 20
123 321 112 11 19 20
123 321 113 10 20 20
122 322 112 10 20 20
122 322 113 10 20 20
122 323 113 11 21 22
123 322 112 10 20 20
123 322 113 10 20 20
123 323 113 11 21 20
122 322 114 12 22 21
122 323 114 11 21 20
122 323 115 11 21 20
123 322 114 12 22 21
123 323 114 12 22 21
123 323 115 10 20 20
120 324 112 9 19 19
120 325 112 9 19 19
120 325 113 9 19 19
121 324 112 10 20 20
121 324 113 11 21 22
121 325 112 11 21 22
121 325 113 12 20 20
120 324 114 12 20 20
120 324 115 11 19 19
120 325 115 10 18 18
121 324 114 12 20 20
121 324 115 12 20 20
121 325 114 12 20 20
120 326 112 10 18 18
120 326 113 11 19 19
121 326 112 12 20 20
121 326 113 11 19 19
121 327 113 11 19 20
121 326 114 11 19 20
121 327 114 9 19 19
122 324 112 10 20 20
122 324 113 11 21 22
122 325 112 11 21 22
122 325 113 11 21 22
123 324 112 10 20 20
123 324 113 11 21 22
123 325 112 10 20 20
123 325 113 10 20 20
122 324 114 11 21 22
122 324 115 11 21 22
122 325 114 10 20 20
122 325 115 10 20 20
123 324 114 11 21 22
123 324 115 10 20 20
123 325 114 10 20 20
123 325 115 10 20 20
122 326 112 11 21 22
122 326 113 10 20 20
122 327 113 9 19 19
123 326 113 9 19 19
123 327 113 9 19 19
122 326 114 9 19 19
122 327 114 9 19 19
123 326 114 8 18 18
123 327 114 9 19 19
123 327 115 10 20 20
120 324 116 9 19 19
120 325 116 9 19 19
121 324 116 9 19 19
121 325 116 9 19 19
120 326 116 8 18 18
120 327 116 8 18 18
120 327 117 8 18 18
121 326 116 9 19 19
121 326 117 10 20 20
121 327 116 10 20 20
121 327 117 9 19 19
121 327 118 9 19 19
122 324 116 9 19 19
122 325 116 9 19 19
123 324 116 10 20 20
123 325 116 12 20 22
122 326 116 11 19 20
122 326 117 11 19 20
122 327 117 10 18 19
123 326 116 11 19 20
123 326 117 10 18 19
123 327 117 9 19 19
122 327 118 9 19 19
123 327 118 9 19 19
124 322 113 12 22 23
124 323 113 12 22 23
125 322 113 11 21 22
125 323 113 10 20 20
124 322 114 12 22 23
124 323 114 11 21 22
124 323 115 10 20 20
125 322 114 10 20 20
125 323 114 10 20 20
125 323 115 11 19 22
126 323 115 11 19 22
127 323 115 10 18 18
125 323 116 10 18 21
126 323 116 11 19 22
127 323 116 9 19 19
124 324 112 11 21 22
124 325 112 11 21 22
124 325 113 10 20 20
125 324 112 10 20 20
125 325 112 9 19 19
125 325 113 9 18 21
124 324 114 11 20 23
124 324 115 10 19 22
124 325 114 10 19 22
125 324 114 10 19 22
125 324 115 10 19 22
125 325 114 10 19 22
125 325 115 11 19 22
124 326 113 10 18 21
124 327 113 10 18 21
125 326 113 10 18 21
125 327 113 9 18 21
124 326 114 10 19 22
124 326 115 10 19 22
124 327 114 9 18 21
124 327 115 9 18 21
125 326 114 10 19 22
125 326 115 10 19 22
125 327 114 9 18 21
125 327 115 8 18 18
126 324 112 9 19 19
126 325 112 9 19 19
126 325 113 8 18 18
127 324 112 10 20 20
127 324 113 9 19 19
127 325 112 9 19 19
127 325 113 10 18 19
126 324 115 10 18 19
126 325 114 10 18 19
126 325 115 10 18 19
127 324 115 10 18 19
127 325 115 10 18 19
126 326 113 10 18 19
127 326 113 10 18 19
126 326 114 10 18 19
126 326 115 10 18 19
126 327 114 9 17 18
126 327 115 9 17 18
127 326 114 9 17 18
127 326 115 10 18 19
127 327 114 9 17 18
127 327 115 8 18 18
124 324 116 10 20 20
124 325 116 10 20 20
124 325 117 9 19 19
125 324 116 10 20 20
125 324 117 8 18 18
125 325 116 9 19 19
125 325 117 9 17 18
124 326 116 10 18 19
124 326 117 9 17 18
124 327 117 9 17 18
125 326 117 9 17 18
125 327 116 10 18 19
124 326 118 9 17 18
124 327 118 9 17 18
125 326 118 9 17 18
125 327 118 9 17 18
125 327 119 9 17 18
126 324 116 10 18 19
126 324 117 8 16 17
126 325 117 10 18 19
127 324 116 10 18 19
127 324 117 10 18 19
127 325 116 10 18 19
127 325 117 10 18 19
127 325 118 9 17 18
126 326 117 10 18 19
126 327 116 9 17 18
127 326 116 10 18 19
127 326 117 10 18 19
127 327 116 10 18 19
127 327 117 8 18 18
126 326 118 9 19 19
126 327 118 9 19 19
126 327 119 8 18 18
127 326 118 9 19 19
127 327 118 10 20 20
127 327 119 9 19 18
123 328 114 9 19 18
123 328 115 9 19 19
120 328 117 8 18 18
120 329 117 8 18 18
121 328 117 9 19 19
120 328 118 8 18 18
120 329 118 8 18 18
121 328 118 9 19 19
121 329 118 8 20 19
121 331 116 8 20 19
121 331 117 9 19 19
120 330 118 8 18 18
120 330 119 9 19 19
120 331 119 9 19 19
121 330 118 9 19 19
121 330 119 10 20 20
121 331 118 9 19 19
121 331 119 10 20 20
122 328 118 9 19 19
122 329 118 9 19 19
122 329 119 9 19 19
123 328 118 9 19 19
123 328 119 9 19 19
123 329 118 9 19 19
123 329 119 9 19 19
122 331 116 10 20 20
122 331 117 9 19 19
123 330 117 9 19 19
123 331 116 9 19 19
123 331 117 10 18 19
122 330 118 10 18 19
122 330 119 11 19 20
122 331 118 10 18 19
122 331 119 10 18 19
123 330 118 10 18 19
123 330 119 10 18 19
123 331 118 10 18 19
123 331 119 9 19 19
120 332 117 8 18 18
120 333 117 9 19 19
121 332 116 9 19 19
121 332 117 10 20 20
121 333 117 11 19 20
120 332 118 9 17 18
120 332 119 10 18 19
120 333 118 10 18 19
120 333 119 9 17 18
121 332 118 11 19 20
121 332 119 10 18 19
121 333 118 10 20 19
120 334 117 10 20 19
121 334 117 10 20 20
120 334 118 9 19 19
120 335 118 9 19 19
121 334 118 9 19 19
121 335 118 9 19 19
121 335 119 9 19 19
122 332 116 10 20 20
122 332 117 9 19 19
122 333 117 9 19 19
123 332 116 9 19 19
123 332 117 9 19 19
123 333 117 10 18 19
122 332 118 10 18 19
122 332 119 10 18 19
122 333 118 10 18 19
123 332 118 10 18 19
123 333 118 10 18 19
123 333 119 9 19 19
122 334 118 9 19 19
122 335 118 9 19 19
122 335 119 9 19 19
123 334 118 9 19 19
123 334 119 9 19 19
123 335 118 9 19 19
123 335 119 8 18 18
124 328 114 9 19 19
124 328 115 8 18 18
125 328 115 10 18 19
126 328 115 9 17 18
127 328 115 8 18 17
125 328 116 9 19 18
125 328 117 8 18 17
125 329 116 9 19 18
125 329 117 10 20 20
124 328 118 9 19 19
124 328 119 9 19 19
124 329 119 8 18 18
125 328 118 9 19 19
125 328 119 8 18 18
125 329 118 9 19 19
125 329 119 9 19 19
124 330 117 9 19 19
124 331 117 9 19 19
125 330 117 10 20 20
125 331 117 11 19 20
124 330 118 9 17 18
124 330 119 9 17 18
124 331 119 9 17 18
125 330 118 10 18 19
125 330 119 9 17 18
125 331 118 9 19 19
126 328 116 9 19 19
126 328 117 9 19 19
126 329 116 9 19 19
126 329 117 10 20 20
127 328 116 9 19 19
127 328 117 9 19 19
127 329 116 9 19 19
127 329 117 11 21 20
126 328 119 8 18 17
126 329 118 8 18 17
126 329 119 8 18 17
127 328 118 10 20 19
127 328 119 10 20 19
127 329 118 10 20 19
127 329 119 10 20 19
126 330 116 9 19 18
126 330 117 9 19 18
126 331 117 9 19 18
127 330 116 9 19 18
127 330 117 10 20 19
127 331 117 9 19 18
126 331 118 9 19 18
127 330 118 11 21 20
127 331 118 10 20 19
127 331 119 8 18 17
124 332 117 9 19 18
125 332 117 10 18 19
124 332 118 10 18 19
124 333 118 10 18 19
124 333 119 9 17 18
125 332 118 9 17 18
125 332 119 9 17 18
125 333 118 9 17 18
125 333 119 9 17 18
124 334 119 10 18 19
124 335 119 9 17 18
125 334 119 9 17 18
125 335 119 9 19 18
126 332 118 9 19 18
126 332 119 9 19 18
126 333 119 9 19 18
127 332 118 9 19 18
127 332 119 8 18 17
127 333 119 7 19 18
126 334 119 7 19 18
126 335 119 9 19 19
120 331 120 8 18 18
121 331 120 9 19 19
122 330 120 9 19 19
122 331 120 9 19 19
123 330 120 9 19 19
123 331 120 9 19 19
120 332 120 8 18 18
120 332 121 9 19 19
120 333 120 8 18 18
120 333 121 9 19 19
121 332 120 9 19 18
120 333 122 8 18 17
120 333 123 7 17 16
121 333 122 9 19 18
121 333 123 8 18 17
120 334 122 8 18 17
120 334 123 7 17 16
121 334 122 8 18 17
121 334 123 8 18 17
121 335 123 9 18 15
122 332 120 9 19 18
122 334 123 8 18 17
122 335 123 8 19 15
121 334 124 9 20 16
121 335 124 9 20 16
122 334 124 8 19 15
122 335 124 9 17 17
124 329 120 10 18 18
125 329 120 10 15 17
124 330 120 11 16 18
124 331 120 12 17 19
125 330 120 8 18 17
126 328 120 9 19 18
126 329 120 8 18 17
127 328 120 8 18 17
127 329 120 9 19 18
125 334 120 9 19 18
125 335 120 9 19 19
126 333 120 9 19 19
127 333 120 8 18 17
126 334 120 9 19 18
126 335 120 9 19 18
127 334 120 9 19 18
127 335 120 9 17 17
112 336 117 11 19 19
112 337 117 10 18 18
113 336 117 10 18 18
113 337 117 11 19 19
112 336 118 9 17 17
112 336 119 10 18 18
112 337 118 10 18 18
112 337 119 11 19 19
113 336 118 10 18 18
113 336 119 10 18 18
113 337 118 10 18 18
112 338 117 9 17 17
112 339 117 11 19 19
113 338 117 11 19 19
113 339 117 10 18 19
112 338 118 10 18 18
114 336 117 10 18 18
114 337 117 11 19 19
115 336 117 9 17 17
115 337 117 10 18 19
114 336 118 11 19 20
114 336 119 10 18 19
114 337 118 10 18 19
114 338 117 10 18 19
114 339 117 10 18 19
115 338 117 10 18 19
115 339 117 9 19 18
115 338 118 10 20 19
115 339 118 9 19 18
112 340 117 11 21 20
112 341 117 10 20 19
113 340 117 10 20 19
113 341 117 11 19 19
112 342 117 11 19 19
112 343 117 10 18 18
113 342 117 10 20 19
112 343 118 9 19 18
112 343 119 8 18 17
113 343 118 10 20 19
113 343 119 10 19 16
114 340 117 11 19 19
114 342 118 11 19 19
114 342 119 11 19 19
114 343 118 11 19 19
114 343 119 11 19 19
115 342 118 10 18 18
115 342 119 10 20 19
116 336 117 9 19 18
116 337 117 8 18 17
117 336 117 9 19 18
117 337 117 9 17 17
117 337 118 9 17 17
116 338 117 9 17 17
116 339 117 9 17 17
117 338 117 8 18 17
116 338 118 9 19 18
116 339 118 9 19 18
117 338 118 9 19 18
117 339 118 9 17 17
118 336 117 9 17 17
118 337 117 9 17 17
119 336 117 9 17 17
119 337 117 9 17 17
118 336 118 9 17 17
118 337 118 9 17 17
119 336 118 9 17 17
119 337 118 9 19 19
118 338 118 8 18 18
118 339 118 9 19 19
119 338 118 9 20 16
116 340 118 8 19 15
116 341 118 8 19 15
116 341 119 9 20 16
117 340 118 8 19 15
117 341 119 7 19 15
116 342 119 9 20 16
118 340 119 8 19 15
118 341 119 8 19 15
119 340 119 9 17 17
115 339 121 10 18 18
115 339 122 10 18 18
113 341 121 10 21 17
113 341 122 10 19 16
112 343 120 10 19 16
112 343 121 10 19 16
113 342 121 10 19 16
113 343 120 10 19 16
113 343 121 9 20 16
112 343 122 8 19 15
113 342 122 9 20 16
113 343 122 9 20 16
113 343 123 9 17 17
114 341 121 10 18 18
115 340 121 11 19 19
115 341 121 10 18 18
114 341 122 10 18 18
115 340 122 10 18 18
115 341 122 10 18 18
115 341 123 9 17 17
114 342 120 10 18 18
114 342 121 9 17 17
114 343 120 9 17 17
114 343 121 9 17 17
115 342 120 10 18 18
115 342 121 11 19 19
115 343 120 11 19 19
115 343 121 8 18 17
114 342 122 8 18 17
114 342 123 9 19 18
114 343 122 8 18 17
114 343 123 9 19 18
115 342 122 9 19 18
115 342 123 9 19 18
115 343 123 10 19 16
115 343 124 11 20 15
116 339 121 9 19 18
116 339 122 9 19 18
117 338 122 8 18 17
117 338 123 9 19 18
117 339 122 9 19 18
117 339 123 9 19 18
119 337 122 8 18 17
119 337 123 8 18 17
118 338 122 8 18 17
118 338 123 8 18 17
118 339 122 8 18 17
118 339 123 8 18 17
119 338 122 8 18 17
119 338 123 8 18 17
119 339 122 8 18 17
119 339 123 10 18 18
119 339 124 9 19 18
116 340 121 9 19 18
116 341 120 9 19 18
116 341 121 9 19 18
117 340 121 8 18 17
117 341 120 8 18 17
117 341 121 8 18 17
116 340 122 9 19 18
116 340 123 9 19 18
116 341 122 9 19 18
116 341 123 8 18 17
117 340 122 9 19 18
117 340 123 9 19 18
117 341 122 9 19 18
117 341 123 10 20 19
116 342 120 9 19 18
116 342 121 9 20 16
116 342 123 9 20 16
116 343 123 9 20 16
117 342 123 9 20 16
117 343 123 9 19 18
118 340 120 8 18 17
118 340 121 8 18 17
118 341 120 9 19 18
118 341 121 9 19 18
119 340 120 8 18 17
119 340 121 9 17 17
118 340 122 9 17 17
118 340 123 11 19 19
118 341 122 10 18 18
118 341 123 10 18 18
119 340 122 9 17 17
119 340 123 10 18 19
118 342 123 10 19 16
116 343 124 10 19 16
117 342 124 10 19 16
117 343 124 10 19 16
118 340 124 10 19 16
118 341 124 10 19 16
119 340 124 10 19 16
119 341 124 10 19 16
118 342 124 11 20 17
118 343 124 10 19 16
118 343 125 10 19 16
119 342 124 10 19 16
119 343 124 10 19 16
119 343 125 9 19 18
112 344 118 9 19 18
112 344 119 11 21 20
113 344 119 10 20 19
112 344 120 9 19 18
112 344 121 8 18 17
113 344 120 10 19 16
112 344 122 9 18 15
112 344 123 9 18 15
112 345 122 9 18 15
112 345 123 9 18 15
113 344 122 9 18 15
113 344 123 10 19 16
113 345 123 10 19 16
112 346 122 9 18 15
112 346 123 8 17 14
112 347 122 8 17 14
112 347 123 9 18 15
113 346 123 9 18 15
113 347 123 8 17 14
114 344 123 10 19 16
114 345 123 10 19 16
115 344 123 9 20 16
114 346 123 9 20 16
114 347 123 9 18 15
113 345 124 9 18 15
112 347 124 10 19 16
113 346 124 8 17 14
113 347 124 9 18 15
114 344 124 10 19 16
114 345 124 10 19 16
114 345 125 9 18 15
115 344 124 10 19 16
115 344 125 9 18 15
115 345 124 10 19 16
115 345 125 9 18 15
114 346 124 10 19 16
114 346 125 8 17 14
114 347 124 9 18 15
115 346 124 9 18 15
115 346 125 9 18 15
115 347 124 8 17 14
115 347 125 7 16 15
112 348 123 9 17 17
112 349 123 8 17 12
112 350 123 8 15 8
112 348 124 9 16 9
112 349 124 8 15 8
113 348 124 11 18 11
113 349 124 9 16 9
113 349 125 8 15 8
112 350 124 7 14 7
112 351 124 7 14 7
113 350 124 8 15 8
113 350 125 8 15 8
113 351 124 6 15 10
114 348 124 9 18 13
114 348 125 9 18 13
114 349 124 9 18 13
114 349 125 7 16 11
115 348 124 9 18 13
115 348 125 10 19 14
115 349 125 10 19 16
115 348 126 8 17 14
115 349 126 7 16 9
114 350 124 6 16 8
114 350 125 7 16 9
114 351 124 6 16 8
114 351 125 7 16 9
115 350 125 7 16 9
115 351 124 10 19 12
115 351 125 7 16 9
115 350 126 7 16 9
115 351 126 6 15 12
116 344 124 10 19 16
116 344 125 10 19 16
116 345 125 9 18 15
117 344 124 11 20 17
117 344 125 10 19 16
117 345 125 9 17 17
116 346 125 9 17 17
116 347 125 8 16 16
117 346 125 9 18 15
116 346 126 9 18 15
116 347 126 9 18 15
117 346 126 9 18 15
117 346 127 9 18 15
117 347 126 9 18 15
117 347 127 8 19 15
118 344 124 9 20 16
118 344 125 9 20 16
118 345 125 9 20 16
119 344 125 9 20 16
119 345 125 10 19 16
118 345 126 10 19 16
119 344 126 11 20 17
119 345 126 10 21 15
118 346 125 10 18 18
118 346 126 9 17 17
118 346 127 10 18 18
118 347 126 9 17 17
118 347 127 10 18 18
119 346 126 10 18 18
119 346 127 9 17 17
119 347 126 9 17 17
119 347 127 8 16 16
116 348 125 9 17 17
116 349 125 10 19 16
116 348 126 9 18 15
116 349 126 7 16 13
117 348 126 9 18 15
117 349 126 12 18 14
116 350 125 9 15 11
116 351 125 7 16 9
116 350 126 6 16 8
116 351 126 6 16 8
117 350 126 6 16 8
117 351 126 5 16 12
118 348 126 9 20 16
118 348 127 7 18 14
118 349 126 9 20 16
118 349 127 7 18 14
119 348 127 8 19 15
119 349 127 8 17 12
118 350 126 10 19 14
118 350 127 8 17 12
118 351 126 7 16 11
118 351 127 7 16 11
119 350 126 9 18 13
119 350 127 8 17 12
119 351 126 8 17 12
119 351 127 7 17 17
120 336 118 9 19 19
120 336 119 9 19 19
120 337 118 9 19 19
120 337 119 9 19 19
121 336 118 9 19 19
121 336 119 9 19 19
121 337 118 9 19 19
121 337 119 9 19 19
120 339 119 8 18 18
121 338 119 8 18 18
121 339 119 8 18 18
122 336 119 8 18 18
122 337 119 8 18 18
123 336 119 8 18 18
123 337 119 8 19 21
123 338 119 8 19 21
120 340 119 8 18 18
124 336 119 9 19 19
124 337 119 9 19 19
125 336 119 9 19 19
124 338 119 8 19 21
126 336 119 9 19 18
120 337 122 8 18 17
120 337 123 8 18 17
121 337 122 8 18 17
121 337 123 8 18 17
120 339 120 8 18 17
120 339 121 9 19 18
121 339 120 8 18 17
121 339 121 8 18 17
120 338 122 8 18 17
120 338 123 8 18 17
120 339 122 8 18 17
120 339 123 9 19 18
121 338 122 8 18 17
121 338 123 8 18 17
121 339 122 9 17 17
123 337 123 9 19 19
122 338 120 8 18 18
122 338 121 8 18 18
122 339 120 9 19 19
122 339 121 8 18 18
123 338 120 8 18 18
123 338 121 8 18 18
122 338 122 8 18 18
122 338 123 8 18 18
122 339 122 8 18 18
123 338 122 9 19 19
123 338 123 8 18 18
123 339 123 8 16 16
120 338 124 9 17 17
120 339 124 10 18 18
121 338 124 9 17 17
121 339 124 11 17 17
123 337 124 9 17 17
122 338 124 9 17 17
122 339 124 8 16 16
122 339 125 9 17 17
123 338 124 9 17 17
123 339 124 9 17 17
123 339 125 9 20 16
120 340 120 9 20 16
120 340 121 9 20 16
120 340 122 10 18 18
120 340 124 11 19 19
120 341 124 10 18 18
120 341 125 9 17 17
121 340 124 9 17 17
121 340 125 10 18 18
121 341 124 10 18 18
121 341 125 9 20 16
120 342 124 9 20 16
120 342 125 9 20 16
120 343 124 9 20 16
120 343 125 8 19 15
121 342 125 8 19 15
121 343 125 8 19 15
122 340 124 8 19 15
122 340 125 8 19 15
122 341 125 9 20 16
123 340 124 9 20 16
123 340 125 9 20 16
123 341 125 9 19 18
122 342 125 8 18 17
122 343 125 8 18 17
123 342 125 8 18 17
123 343 125 7 19 17
123 342 126 7 19 17
123 343 126 8 18 18
124 337 120 9 19 19
124 337 121 8 18 18
125 337 120 8 18 18
125 337 121 8 17 20
124 337 122 8 17 20
124 337 123 8 17 20
125 336 123 9 18 21
125 337 122 9 18 21
125 337 123 8 18 17
124 338 120 8 18 17
124 338 121 7 17 17
124 338 122 8 18 18
124 338 123 7 17 17
124 339 123 7 17 17
125 338 123 8 18 18
126 336 120 9 19 19
126 336 121 9 19 19
126 337 120 9 19 19
126 337 121 9 19 19
127 336 120 7 17 17
127 336 121 9 19 19
126 336 122 9 19 19
126 336 123 8 18 18
126 337 122 9 19 19
126 337 123 8 18 18
127 336 122 8 18 18
127 336 123 8 18 17
124 337 124 8 18 17
125 336 124 8 18 17
125 337 124 8 18 17
124 338 124 8 18 17
124 339 124 9 19 18
124 339 125 9 19 18
125 338 124 7 17 16
125 339 124 7 17 16
125 339 125 9 19 18
126 336 124 8 18 17
126 337 124 9 19 18
127 336 124 7 17 16
127 337 124 8 18 17
127 337 125 10 18 18
126 338 124 11 19 19
126 338 125 9 17 17
126 339 124 10 18 18
126 339 125 9 17 17
127 338 124 9 17 17
127 338 125 8 16 16
127 339 125 7 17 16
127 339 126 7 17 16
124 340 124 8 18 17
124 340 125 9 19 18
124 341 125 9 19 18
125 340 125 9 19 18
125 341 125 9 19 18
124 341 126 8 18 17
125 340 126 9 19 18
125 341 126 7 19 18
124 342 125 9 19 19
124 342 126 8 18 18
124 343 126 8 18 18
124 343 127 7 17 17
125 342 126 8 18 18
125 342 127 7 17 17
125 343 126 7 17 17
125 343 127 6 16 15
126 340 125 8 18 17
127 340 125 8 16 16
126 340 126 8 16 16
126 341 126 8 16 16
127 340 126 8 16 16
127 341 126 7 16 15
126 342 126 7 16 15
126 342 127 8 16 16
126 343 127 8 16 16
127 342 126 6 15 14
127 342 127 7 16 15
127 343 127 7 16 15
120 344 125 9 17 17
121 344 125 7 19 15
120 344 126 8 20 16
120 345 126 9 21 17
121 344 126 8 20 16
121 345 126 8 20 16
121 345 127 10 20 19
120 346 126 9 19 18
120 346 127 8 18 17
120 347 127 8 18 17
121 346 126 10 20 19
121 346 127 10 20 19
121 347 127 8 18 17
122 344 125 8 18 17
123 344 125 7 17 16
122 344 126 9 19 18
122 345 126 9 19 18
122 345 127 10 20 19
123 344 126 8 18 17
123 345 126 7 17 16
123 345 127 8 18 17
122 346 127 11 21 20
122 347 127 10 20 19
123 346 127 8 18 17
123 347 127 8 20 18
120 348 127 7 19 17
120 349 127 9 21 19
121 348 127 7 19 17
121 349 127 7 19 17
120 350 127 9 21 19
120 351 126 9 21 19
120 351 127 5 17 15
121 350 127 8 20 18
121 351 127 6 18 14
122 348 127 9 21 17
122 349 127 7 19 15
123 348 127 8 20 16
123 349 127 9 20 16
122 350 127 8 19 15
122 351 127 8 19 15
123 350 127 8 16 16
124 344 126 8 16 16
124 344 127 8 16 16
124 345 126 8 16 16
124 345 127 8 16 16
125 344 127 8 16 16
125 345 127 10 16 14
124 346 127 10 16 14
124 347 127 11 17 15
125 346 127 10 16 14
125 347 127 11 17 17
126 344 127 10 16 16
126 345 127 11 17 17
127 344 127 10 16 16
127 345 127 8 16 17
126 346 127 8 16 17
127 346 127 8 16 16
124 348 127 10 18 18
124 349 127 10 19 14
124 350 127 9 18 13
124 351 127 9 18 13
125 350 127 11 20 15
125 351 127 9 20 16
126 350 127 9 20 16
126 351 127 12 18 14
96 382 69 1 7 3
96 383 69 1 7 3
97 383 69 0 7 0
96 382 70 0 7 0
96 382 71 0 7 0
96 383 70 0 5 1
96 381 73 1 6 2
97 381 73 1 7 3
96 380 75 1 7 3
96 381 74 0 6 2
97 381 74 1 7 3
97 381 75 1 6 2
96 382 72 0 5 0
97 382 75 0 5 1
98 383 73 1 6 2
99 383 72 1 7 3
98 382 74 1 7 3
98 382 75 0 6 2
98 383 74 0 5 1
98 383 75 0 5 1
99 383 74 1 6 2
96 380 76 1 6 2
96 381 76 0 5 1
96 382 76 0 4 0
96 382 77 0 4 0
97 382 76 0 5 1
97 383 76 0 4 0
97 383 77 1 3 2
96 382 78 0 2 1
96 382 79 0 2 1
96 383 79 0 2 1
97 383 78 1 1 1
96 373 91 0 8 3
96 375 89 0 6 2
96 374 90 0 6 2
96 374 91 0 6 2
96 375 90 0 4 0
96 375 91 0 4 0
96 373 92 0 6 0
96 377 86 2 9 1
96 377 87 0 5 0
96 379 85 0 2 0
96 378 86 0 2 0
96 378 87 0 2 0
96 379 86 0 2 0
96 379 87 1 3 0
97 379 87 0 2 0
96 383 80 0 2 0
96 383 81 0 2 0
96 382 82 0 2 0
97 383 82 1 3 0
98 383 83 1 3 0
96 380 84 0 2 0
96 380 85 0 2 0
96 381 84 1 3 0
97 380 85 0 2 0
97 381 84 0 2 0
97 381 85 0 4 0
96 380 86 0 4 0
96 380 87 0 5 1
97 380 86 0 4 0
97 380 87 0 4 0
97 381 86 0 4 0
97 381 87 1 6 0
97 382 84 0 4 0
97 382 85 0 5 1
97 382 86 1 7 3
97 382 87 3 8 4
98 382 84 0 3 0
98 382 85 0 4 0
98 383 84 0 4 0
98 383 85 0 7 0
98 382 86 0 6 0
98 382 87 1 8 1
98 383 86 2 9 2
98 383 87 3 8 4
96 376 89 0 4 0
96 377 88 0 4 0
96 377 89 0 5 1
96 376 90 0 4 0
96 376 91 1 6 2
96 378 88 0 4 0
96 379 88 1 6 2
97 379 88 0 6 0
96 352 107 5 12 5
96 353 107 2 11 6
96 354 107 3 12 7
96 355 107 4 10 6
96 352 108 4 10 6
96 352 109 3 9 5
96 353 108 3 9 5
96 353 109 4 10 6
97 352 109 4 10 6
97 353 109 3 9 5
97 352 110 3 9 5
97 352 111 3 9 5
97 353 110 4 10 6
97 353 111 3 9 5
96 354 108 3 9 5
96 354 109 4 10 6
96 355 108 4 10 6
96 355 109 5 11 7
97 354 109 4 10 6
97 355 108 4 10 6
97 355 109 5 11 7
97 354 110 4 10 6
97 355 110 3 9 5
98 352 111 3 9 5
98 353 110 3 9 5
98 353 111 3 9 5
98 355 109 4 10 6
98 354 110 4 10 6
98 354 111 2 8 4
98 355 110 4 10 6
98 355 111 2 8 4
99 354 111 3 9 5
99 355 110 3 9 5
99 355 111 2 9 2
96 357 105 0 8 3
96 356 107 3 12 7
96 357 106 2 11 6
96 357 107 2 11 6
97 357 107 3 12 7
96 358 105 2 8 4
96 358 106 4 10 6
96 358 107 4 10 6
96 359 106 4 10 6
96 359 107 5 11 7
97 358 107 4 10 6
97 359 107 2 11 6
96 356 108 3 12 7
96 356 109 2 11 6
96 357 108 2 11 6
96 357 109 2 11 6
97 356 108 3 12 7
97 356 109 3 12 7
97 357 108 3 12 7
97 357 109 4 10 6
97 358 108 4 10 6
97 358 109 4 10 6
97 359 108 4 10 6
97 359 109 2 11 6
98 356 109 3 12 7
98 357 109 2 11 6
99 356 109 2 11 6
99 357 109 4 10 6
98 356 110 3 9 5
99 356 110 3 9 5
99 356 111 2 8 4
99 357 110 2 8 4
98 358 109 4 10 6
98 359 108 4 10 6
98 359 109 4 10 6
99 358 109 4 10 6
99 359 109 4 10 6
99 358 110 3 9 5
99 359 110 3 9 5
100 356 110 3 9 5
100 356 111 2 8 4
100 357 110 3 9 5
100 357 111 2 8 4
101 357 111 0 10 2
100 359 109 3 9 5
100 358 110 3 9 5
100 358 111 3 9 5
100 359 110 3 9 5
100 359 111 4 10 6
101 358 111 2 8 4
101 359 110 3 9 5
101 359 111 2 9 2
96 360 103 0 6 0
96 361 103 1 8 1
96 360 104 3 10 3
96 360 105 3 10 3
96 361 104 3 10 3
96 361 105 3 10 3
97 361 105 3 9 5
96 360 106 4 10 6
96 360 107 5 11 7
96 361 106 5 11 7
97 360 106 5 11 7
97 360 107 5 11 7
97 361 106 5 11 7
97 361 107 3 12 7
96 362 104 0 9 4
96 362 105 2 11 6
97 362 104 1 10 5
97 362 105 2 11 6
97 363 104 0 9 4
97 363 105 2 13 5
97 362 106 3 12 7
98 360 107 3 12 7
98 361 106 4 13 8
98 361 107 5 11 7
98 362 105 4 10 6
98 363 105 4 10 6
99 363 105 2 11 6
98 362 106 3 12 7
98 362 107 3 12 7
98 363 106 3 12 7
98 363 107 2 11 6
99 362 107 3 12 7
99 363 106 3 12 7
99 363 107 5 12 5
97 360 108 5 12 5
98 360 108 4 11 4
98 360 109 3 10 3
98 361 108 5 12 5
99 360 108 4 11 4
99 360 109 4 11 4
99 361 108 4 11 4
99 361 109 3 10 3
98 362 108 4 11 4
99 362 108 4 11 4
99 362 109 3 10 3
99 363 108 1 11 3
98 364 105 2 12 4
99 364 105 2 12 4
99 365 105 3 13 5
99 364 106 2 12 4
99 364 107 2 12 4
99 365 106 2 12 4
99 365 107 2 11 6
99 364 108 1 10 5
99 365 108 1 10 5
100 363 107 5 12 5
100 360 109 4 11 4
100 361 109 2 11 6
100 360 110 2 11 6
100 361 110 1 10 5
101 360 110 2 11 6
101 360 111 2 11 6
101 361 110 1 10 5
101 361 111 4 11 4
100 362 108 4 11 4
100 362 109 2 9 2
100 363 108 3 10 3
100 363 109 2 9 2
101 362 109 4 11 4
101 363 108 3 10 3
101 363 109 1 11 3
100 362 110 0 10 2
101 362 110 0 10 2
101 362 111 1 11 3
101 363 110 2 9 2
102 360 111 3 10 3
102 361 111 4 10 8
102 363 109 2 11 6
102 362 110 1 10 5
102 362 111 1 10 5
102 363 110 1 10 5
102 363 111 2 11 6
103 362 111 2 11 6
103 363 111 1 10 5
100 365 105 3 13 5
100 364 106 3 13 5
100 364 107 2 12 4
100 365 106 2 12 4
100 365 107 2 12 4
101 364 107 3 13 5
101 365 107 3 10 3
100 366 105 3 13 5
100 366 106 1 11 3
100 366 107 1 11 3
100 367 106 1 11 3
101 366 106 2 12 4
101 366 107 1 11 3
101 367 106 2 12 4
101 367 107 0 10 2
102 366 107 1 11 3
102 367 106 2 12 4
102 367 107 1 11 3
103 366 107 1 11 3
103 367 107 3 10 3
100 364 108 3 10 3
100 365 108 3 10 3
101 364 108 3 10 3
101 364 109 2 9 2
101 365 108 1 11 3
101 366 108 1 11 3
102 364 108 0 10 2
102 364 109 1 11 3
102 365 108 1 11 3
102 365 109 1 11 3
103 365 109 0 9 4
102 364 110 1 10 5
102 364 111 0 9 4
102 365 110 2 11 6
103 364 110 2 11 6
103 364 111 3 12 7
103 365 110 1 10 5
103 365 111 1 11 3
102 366 108 1 11 3
102 366 109 0 10 2
103 366 108 0 10 2
103 366 109 1 11 3
103 367 108 1 11 3
103 367 109 0 9 4
103 366 110 1 10 5
103 366 111 1 10 5
103 367 110 4 11 4
104 365 111 2 12 4
104 366 109 0 10 2
104 367 108 1 11 3
104 367 109 3 9 5
104 366 110 2 8 4
104 366 111 3 9 5
104 367 110 3 9 7
97 352 112 3 9 5
98 352 112 2 8 4
98 352 113 1 7 3
98 353 112 2 8 4
98 353 113 1 7 3
99 352 113 2 8 4
99 353 112 2 8 4
99 353 113 4 6 5
99 352 114 2 8 4
98 354 112 2 8 4
99 354 112 2 8 4
99 354 113 2 8 4
99 355 112 2 8 4
99 355 113 4 9 3
99 356 112 0 10 2
100 352 113 0 10 2
100 353 113 2 8 4
100 352 114 1 7 3
100 352 115 2 8 4
100 353 114 2 8 4
101 352 114 2 8 4
101 352 115 1 7 3
101 353 114 1 7 3
101 353 115 1 7 3
100 354 113 2 8 4
100 355 112 2 8 4
100 355 113 2 8 4
100 354 114 2 8 4
100 355 114 2 8 4
101 354 114 2 8 4
101 354 115 2 8 4
101 355 114 1 7 3
101 355 115 3 9 5
102 352 115 1 7 3
102 353 115 1 7 3
102 354 115 0 9 4
101 352 116 2 8 4
101 354 116 3 9 5
101 355 116 3 10 3
102 352 116 2 9 2
102 353 116 2 9 2
103 352 116 3 10 3
103 352 117 3 10 3
103 353 116 3 10 3
103 353 117 2 8 4
102 354 116 3 9 5
102 355 116 3 9 5
102 355 117 3 9 5
103 354 116 3 9 5
103 354 117 3 9 5
103 355 116 4 10 6
103 355 117 3 9 5
100 356 112 2 8 4
100 356 113 3 9 5
100 357 112 3 9 5
101 356 112 1 7 3
101 356 113 2 8 4
101 357 112 2 8 4
101 357 113 2 8 4
100 356 114 2 8 4
101 356 114 2 8 4
101 356 115 3 9 5
101 357 114 3 9 5
101 357 115 1 11 3
101 358 112 1 11 3
101 358 113 1 11 3
101 359 112 4 11 4
102 357 113 2 8 4
102 356 115 3 9 5
102 357 114 2 8 4
102 357 115 1 10 5
102 358 112 1 10 5
102 358 113 0 9 4
102 359 112 1 10 5
102 359 113 1 10 5
103 359 113 3 9 5
102 358 114 3 9 5
102 358 115 2 8 4
102 359 114 3 9 5
103 358 114 2 8 4
103 358 115 3 9 5
103 359 114 3 9 5
103 359 115 0 9 6
101 356 116 1 10 5
102 356 116 1 10 5
102 356 117 2 11 6
102 357 116 1 10 5
102 357 117 1 10 5
103 356 116 1 10 5
103 356 117 2 11 6
103 357 116 1 10 5
103 357 117 4 10 6
102 358 116 3 9 5
102 358 117 4 10 6
103 358 116 3 9 5
103 358 117 3 9 5
103 359 116 3 9 5
103 359 117 3 9 5
101 360 112 4 10 6
102 360 112 4 10 6
102 360 113 3 9 5
102 361 112 3 9 5
103 360 112 3 9 5
103 360 113 2 8 4
103 361 112 3 9 5
103 361 113 3 9 5
103 360 114 3 9 5
103 360 115 1 10 5
102 362 112 1 10 5
103 362 112 1 10 5
103 362 113 1 10 5
103 363 112 3 7 6
103 360 116 4 10 6
103 364 112 2 8 4
103 365 112 2 11 6
104 352 117 1 10 5
104 353 117 1 10 5
105 352 117 1 10 5
105 353 117 4 10 6
105 352 118 4 10 6
105 352 119 4 10 6
105 353 118 4 10 6
105 353 119 4 10 6
104 354 117 2 8 4
104 355 117 3 9 5
105 354 117 3 9 5
105 355 117 3 9 7
105 354 118 4 10 8
105 355 118 4 10 6
106 352 119 3 9 5
106 353 118 4 10 6
106 353 119 4 10 6
107 352 119 3 9 5
106 354 118 4 10 6
106 354 119 4 10 6
106 355 118 4 10 6
106 355 119 6 12 8
107 354 119 4 10 6
107 355 119 5 11 7
104 356 116 3 9 5
104 356 117 3 9 5
104 357 116 2 8 4
104 357 117 3 9 5
105 356 117 3 9 5
105 357 117 2 11 6
105 356 118 2 11 6
105 356 119 5 14 9
105 357 118 2 11 6
105 357 119 5 11 7
104 358 117 3 9 5
104 359 116 3 9 5
104 359 117 3 9 5
105 358 117 3 9 5
105 359 116 4 10 6
105 359 117 1 10 5
105 358 118 3 12 7
105 358 119 3 12 7
105 359 118 2 11 6
106 356 118 3 12 7
106 356 119 4 13 8
106 357 118 3 12 7
106 357 119 4 13 8
107 356 119 4 13 8
107 357 118 3 12 7
107 357 119 6 11 7
106 359 117 1 10 5
106 358 118 3 12 7
106 358 119 3 12 7
106 359 118 3 12 7
106 359 119 3 12 7
107 358 118 4 13 8
107 358 119 4 13 8
107 359 118 3 12 7
107 359 119 2 13 7
108 357 119 6 12 8
108 358 119 6 12 8
108 359 119 5 12 5
106 352 120 3 10 3
106 353 120 5 12 5
106 353 121 7 14 7
107 352 120 4 11 4
107 352 121 6 13 6
107 353 120 4 11 4
107 353 121 4 14 6
107 352 122 4 14 6
106 354 120 4 14 6
106 354 121 5 15 7
106 355 120 4 14 6
107 354 120 4 14 6
107 354 121 5 15 7
107 355 120 4 14 6
107 355 121 7 14 7
106 356 120 6 13 6
107 356 120 6 13 6
107 357 120 6 12 8
108 352 121 6 12 8
108 353 121 6 12 8
109 352 121 5 11 7
109 353 121 5 11 7
108 352 122 6 12 8
109 352 122 6 12 8
109 352 123 7 13 9
109 353 122 6 12 8
109 353 123 5 15 7
108 354 121 5 15 7
108 355 120 4 14 6
108 355 121 5 15 7
109 354 121 4 14 6
109 355 121 5 14 9
109 354 122 4 13 8
110 352 123 4 13 8
110 353 122 5 14 9
110 353 123 5 14 9
111 352 123 5 14 9
111 353 123 7 13 9
110 354 121 5 11 7
110 355 121 4 13 8
110 354 122 4 13 8
110 354 123 6 15 10
110 355 122 4 13 8
110 355 123 6 15 10
111 354 123 5 14 9
111 355 122 5 14 9
111 355 123 6 16 8
111 352 124 8 15 8
108 356 120 6 13 6
108 356 121 6 13 6
108 357 120 6 13 6
108 357 121 6 13 6
109 356 121 7 14 7
109 357 121 5 12 5
109 356 122 8 15 8
109 357 122 7 14 7
108 358 120 6 13 6
108 358 121 5 12 5
108 359 120 5 12 5
109 358 120 6 13 6
109 358 121 6 13 6
109 359 120 6 13 6
109 359 121 5 11 7
109 358 122 4 15 9
110 356 121 5 14 9
110 356 122 6 15 10
110 357 122 5 14 9
111 356 122 4 13 8
111 356 123 5 14 9
111 357 122 6 15 10
111 357 123 7 13 9
110 358 121 5 11 7
110 359 120 6 12 8
110 359 121 6 12 8
111 359 121 5 15 7
110 358 122 6 16 8
110 359 122 5 15 7
111 358 122 5 15 7
111 358 123 5 15 7
111 359 122 5 15 7
