ply
format ascii 1.0
element vertex 2563
property float x
property float y
property float z
property uchar red
property uchar green
property uchar blue
end_header
425 375 50 1 6 2
425 375 51 0 5 1
426 372 48 0 4 0
426 372 49 0 4 0
426 373 48 0 4 0
426 373 49 0 5 1
426 372 50 0 5 1
426 373 50 1 6 2
426 374 48 0 4 0
426 374 49 0 5 1
426 375 48 0 5 1
426 375 49 0 6 2
426 375 50 1 5 4
424 372 53 0 4 3
424 373 53 1 5 4
425 372 52 0 4 3
425 372 53 0 4 3
425 373 52 0 4 3
425 373 53 0 5 1
424 372 54 1 6 2
424 372 55 1 6 2
424 373 54 0 5 1
424 373 55 1 6 2
425 372 54 0 6 2
424 374 53 0 6 2
424 375 52 0 5 1
424 375 53 0 6 2
425 374 52 0 6 2
425 374 53 0 5 1
425 375 52 0 5 1
425 375 53 0 5 1
424 374 54 0 6 2
424 374 55 0 6 2
424 375 54 0 6 2
424 375 55 0 5 1
424 368 56 1 6 2
424 368 57 0 5 1
424 369 56 1 6 2
424 369 57 0 4 3
424 368 58 0 4 3
424 368 59 0 4 3
424 369 58 1 5 4
424 369 59 0 5 1
424 370 56 1 6 2
424 370 57 0 5 1
424 371 56 0 5 1
424 371 57 1 6 2
424 370 58 0 5 1
424 370 59 0 5 1
424 371 58 0 5 1
424 372 56 0 5 1
424 372 57 0 5 1
424 373 56 0 5 1
424 373 57 0 4 3
424 372 58 0 4 3
424 372 59 0 4 3
424 373 58 0 4 3
424 373 59 1 6 2
424 374 56 0 5 1
424 374 57 0 5 1
424 375 56 0 5 1
425 376 49 1 6 2
425 377 49 0 5 1
424 376 51 0 5 1
424 377 51 0 5 1
425 376 50 0 5 1
425 376 51 0 4 0
425 377 50 0 5 1
425 377 51 0 5 1
424 378 50 1 6 2
424 378 51 0 5 1
426 376 48 0 5 1
426 376 49 0 6 2
426 376 50 0 5 1
424 376 52 0 5 1
424 376 53 0 5 1
424 377 52 0 5 1
424 377 53 0 4 0
424 376 54 1 6 2
424 376 55 0 5 1
424 377 54 0 4 0
424 377 55 0 4 0
424 378 52 1 6 2
424 378 53 0 4 0
424 378 54 0 4 0
424 378 55 0 5 3
399 320 70 5 11 9
399 320 71 4 14 15
395 320 77 3 11 11
394 320 79 6 15 14
395 320 78 3 11 11
395 320 79 5 14 13
397 320 73 3 11 13
396 320 75 3 11 13
397 320 74 4 12 14
397 320 75 4 12 14
398 320 72 5 13 15
398 320 73 4 12 14
399 320 72 5 13 15
399 320 73 4 12 14
399 321 72 5 13 15
399 321 73 4 12 14
398 320 74 4 12 14
398 320 75 4 12 14
398 321 74 4 12 14
398 321 75 5 13 15
399 320 74 4 12 14
399 321 74 5 13 15
399 321 75 5 13 15
396 320 76 3 11 13
396 320 77 3 11 13
397 320 76 3 11 13
397 320 77 3 11 13
397 321 76 3 11 13
397 321 77 3 11 11
396 320 78 3 11 11
396 320 79 3 11 11
396 321 78 3 11 11
396 321 79 3 11 11
397 320 78 2 10 10
397 321 78 2 10 10
397 321 79 2 10 10
397 322 79 2 10 12
398 320 76 3 11 13
398 321 76 5 13 15
398 321 77 3 11 13
399 321 76 5 13 15
399 321 77 4 12 14
398 321 78 3 11 13
398 321 79 2 10 12
398 322 77 4 12 14
399 322 76 5 13 15
399 322 77 5 13 15
399 323 77 6 15 14
398 322 78 4 12 12
398 322 79 3 11 11
398 323 79 3 11 11
399 322 78 4 12 12
399 322 79 3 11 11
399 323 78 4 12 12
399 323 79 4 12 12
399 324 79 5 14 13
387 320 87 4 14 16
390 320 83 2 12 14
391 320 82 5 15 17
391 320 83 4 13 18
389 320 85 4 10 10
388 320 86 5 11 11
388 320 87 6 12 12
389 320 86 5 11 11
389 320 87 6 12 12
389 321 87 3 11 13
390 320 84 3 11 13
390 320 85 3 11 13
391 320 84 4 12 14
391 320 85 4 12 14
391 321 85 6 12 12
390 320 86 4 10 10
390 320 87 4 10 10
390 321 86 4 10 10
390 321 87 4 10 10
391 320 86 5 11 11
391 321 86 5 11 11
391 321 87 3 11 11
391 322 87 3 11 11
385 320 89 6 14 16
384 320 90 1 9 11
384 320 91 1 9 11
385 320 90 3 11 13
385 320 91 2 10 12
385 321 91 1 11 10
386 320 88 6 16 15
386 320 89 7 17 16
387 320 88 6 16 15
387 320 89 8 18 17
387 321 89 7 17 17
386 320 90 6 16 16
386 320 91 2 12 13
386 321 90 7 17 17
386 321 91 5 15 16
387 320 90 7 17 17
387 321 90 7 17 17
387 321 91 6 18 17
387 322 91 9 17 17
384 320 92 2 10 10
384 320 93 2 10 10
384 321 93 3 11 11
385 320 92 2 10 10
385 320 93 4 12 12
385 321 92 2 10 10
385 321 93 3 11 13
384 320 94 3 11 13
384 321 94 4 12 14
384 321 95 5 13 15
385 321 94 4 12 12
384 322 94 4 12 12
384 322 95 5 14 13
385 322 94 4 12 12
385 322 95 5 14 13
385 323 95 5 14 13
386 321 92 3 11 11
386 321 93 3 11 11
387 321 92 6 15 14
387 321 93 4 13 10
386 321 94 3 13 14
386 322 93 3 13 14
387 322 92 7 17 17
387 322 93 4 14 15
387 323 93 7 15 16
386 322 94 4 12 14
386 322 95 5 13 15
386 323 94 3 11 13
386 323 95 5 13 15
387 322 94 4 12 14
387 323 94 4 12 14
387 323 95 3 11 11
388 320 88 5 14 13
388 320 89 8 16 16
388 321 88 5 14 13
388 321 89 6 15 14
389 320 88 4 12 12
389 321 88 4 12 12
389 321 89 4 14 15
388 321 90 7 17 17
388 321 91 8 18 18
389 321 90 7 16 15
389 322 89 3 13 12
388 322 90 7 17 16
388 322 91 8 18 17
389 322 90 5 15 14
389 322 91 6 16 15
389 323 91 6 15 14
390 321 88 3 11 11
390 321 89 4 12 12
391 321 88 3 11 11
391 321 89 3 11 11
390 322 89 3 11 11
391 322 88 2 10 10
391 322 89 3 12 9
390 322 90 4 13 10
390 322 91 5 14 11
390 323 90 4 13 10
390 323 91 5 14 11
391 322 90 3 12 9
391 323 90 3 12 9
391 323 91 2 12 13
388 322 92 8 18 18
388 322 93 7 17 17
388 323 92 8 18 18
388 323 93 7 17 17
389 322 92 8 18 18
389 323 92 7 17 17
389 323 93 9 17 18
388 323 94 6 14 16
388 323 95 4 12 14
389 323 94 8 16 16
390 323 92 7 16 15
390 323 93 7 16 15
391 323 92 7 13 13
389 324 93 6 16 16
388 324 94 6 16 16
388 324 95 4 14 15
389 324 94 6 16 16
389 324 95 5 15 16
389 325 95 7 16 15
390 324 92 6 15 14
390 324 93 6 15 14
391 324 92 4 12 12
391 324 93 5 14 13
391 325 92 4 12 12
391 325 93 5 14 13
390 324 94 7 16 15
390 324 95 8 16 16
390 325 94 6 15 14
390 325 95 7 16 15
391 324 94 7 16 15
391 325 94 5 14 13
391 325 95 6 16 15
391 326 95 6 14 16
392 320 81 10 18 19
393 320 80 9 17 18
393 320 81 9 18 21
392 320 82 8 17 20
392 320 83 5 15 17
392 321 83 7 16 19
393 320 82 9 18 21
393 320 83 7 16 19
393 321 83 8 18 18
394 320 80 6 16 16
394 320 81 9 19 19
395 320 80 5 15 16
395 320 81 6 16 16
395 321 81 5 15 16
394 320 82 10 20 20
394 320 83 9 19 19
394 321 82 8 18 18
394 321 83 9 19 19
395 320 82 8 18 18
395 321 82 6 16 16
395 321 83 7 17 17
395 322 82 6 16 16
395 322 83 7 17 17
392 320 84 5 15 16
392 320 85 3 13 14
392 321 84 6 16 16
392 321 85 4 14 15
393 321 84 8 18 18
393 321 85 5 15 16
392 321 86 3 13 14
392 321 87 3 13 14
393 321 86 4 14 15
393 321 87 4 12 14
393 322 85 7 16 19
392 322 87 3 13 15
393 322 86 6 16 18
393 322 87 4 14 16
393 323 87 5 16 18
394 321 84 8 19 21
394 321 85 6 17 19
395 321 84 8 18 18
394 322 84 8 18 18
394 322 85 9 19 19
395 322 84 7 17 17
395 322 85 9 18 21
394 322 86 8 17 20
394 322 87 7 16 19
394 323 86 10 19 22
394 323 87 8 17 20
395 322 86 9 18 21
395 323 86 9 18 21
395 323 87 10 18 18
396 320 80 5 14 13
396 320 81 6 15 14
396 321 80 3 11 11
396 321 81 4 12 12
397 321 80 3 11 11
397 321 81 6 12 10
396 321 82 5 14 11
396 322 81 4 13 10
397 322 80 3 12 9
397 322 81 3 12 9
397 323 81 2 10 10
396 322 82 5 14 13
396 322 83 6 15 14
396 323 83 4 12 12
397 322 82 4 12 12
397 322 83 4 12 12
397 323 82 3 11 11
397 323 83 3 11 11
398 322 80 3 11 11
398 322 81 3 11 11
398 323 80 3 11 11
398 323 81 3 11 11
399 323 80 3 11 11
399 323 81 3 12 9
398 323 82 2 11 8
398 323 83 2 10 10
396 322 84 7 16 15
396 322 85 9 17 17
396 323 84 7 16 15
396 323 85 8 16 16
397 323 84 5 14 13
397 323 85 6 15 14
396 322 86 10 18 18
396 323 86 9 17 17
396 323 87 11 19 19
397 323 86 6 16 15
398 323 84 3 11 11
398 324 81 3 11 11
399 324 80 4 12 12
399 324 81 2 10 10
398 324 82 2 10 10
398 324 83 3 11 11
399 324 82 3 11 11
399 324 83 2 10 10
399 325 82 4 12 12
399 325 83 3 12 9
397 324 84 4 13 10
397 324 85 5 14 13
396 324 86 8 16 16
396 324 87 9 17 17
397 324 86 6 15 14
397 324 87 9 17 17
397 325 87 9 15 15
398 324 84 6 12 12
398 324 85 7 13 13
398 325 85 5 11 11
399 324 84 5 11 11
399 324 85 5 11 11
399 325 84 5 11 11
399 325 85 2 10 10
398 324 86 5 14 13
398 324 87 7 16 15
398 325 86 3 11 11
398 325 87 5 14 13
399 325 86 4 10 10
399 326 84 5 11 11
399 326 85 4 10 10
398 326 86 5 11 11
398 326 87 6 12 12
399 326 86 4 10 10
399 326 87 5 11 11
399 327 86 5 11 11
399 327 87 3 11 11
392 322 88 3 11 11
392 322 89 3 11 11
392 323 88 4 12 12
392 323 89 4 12 12
393 322 88 4 12 12
393 323 88 5 14 13
393 323 89 5 13 15
392 322 90 4 12 14
392 323 90 3 11 13
392 323 91 3 11 13
393 323 90 4 12 14
393 323 91 3 11 13
394 323 88 6 14 16
394 323 89 5 13 15
395 323 88 7 19 18
392 323 92 5 10 13
393 324 89 5 13 15
392 324 91 3 11 13
393 324 90 4 12 14
393 324 91 3 11 13
393 325 91 2 12 14
394 324 88 7 16 19
394 324 89 5 15 17
395 324 88 9 18 21
395 324 89 7 16 19
395 325 89 9 18 21
394 324 90 4 14 16
394 324 91 2 12 14
394 325 91 3 13 15
395 324 90 6 16 18
395 324 91 4 14 16
395 325 90 8 17 20
395 325 91 5 15 17
395 326 91 8 16 17
392 324 92 3 11 13
392 325 92 3 11 13
392 325 93 3 11 13
393 324 92 3 11 13
393 325 92 3 11 13
393 325 93 5 11 11
392 325 94 6 12 12
392 325 95 6 15 14
392 326 93 3 11 11
393 326 93 3 11 11
392 326 94 4 12 12
392 326 95 5 14 13
392 327 95 5 14 13
393 326 94 4 12 12
393 326 95 4 12 12
393 327 94 5 14 13
393 327 95 4 12 12
394 325 92 4 12 12
394 325 93 4 12 12
395 325 92 4 14 15
394 326 92 4 14 15
394 326 93 3 13 14
394 327 93 4 14 15
395 326 92 5 15 16
395 326 93 4 14 15
395 327 92 7 17 17
395 327 93 6 16 15
394 326 94 3 13 12
394 327 94 3 13 12
394 327 95 4 14 13
395 327 94 4 14 13
395 327 95 3 13 14
396 323 88 10 20 19
396 324 88 10 20 19
396 324 89 9 19 18
396 325 88 9 19 18
396 325 89 10 20 19
397 324 88 8 18 17
397 325 88 7 17 16
397 325 89 8 20 19
396 325 90 8 20 19
396 325 91 8 18 18
396 326 89 9 19 19
397 326 88 5 15 16
397 326 89 8 16 16
396 326 90 10 18 18
396 326 91 10 18 18
396 327 91 11 19 19
397 326 90 9 17 17
397 326 91 10 18 18
397 327 90 8 16 16
397 327 91 9 17 17
398 325 88 6 15 14
398 326 88 5 14 13
398 326 89 6 15 14
398 327 88 4 12 12
398 327 89 5 14 13
399 326 88 4 12 12
399 327 88 2 10 10
399 327 89 3 11 11
398 326 90 7 16 15
398 327 90 6 15 14
398 327 91 8 16 16
399 327 90 4 14 15
396 326 92 7 17 17
396 327 92 9 19 19
396 327 93 7 17 17
397 327 92 9 19 19
396 327 94 5 14 19
398 327 92 8 18 18
394 328 95 3 13 14
395 328 94 6 16 16
395 328 95 5 14 13
399 328 88 2 10 10
399 328 89 4 12 12
398 328 90 5 14 13
398 328 91 7 16 15
398 329 91 6 15 14
399 328 90 4 12 12
399 328 91 5 14 13
399 329 90 4 12 12
399 329 91 4 14 15
396 328 92 9 19 19
396 328 93 9 19 19
397 328 92 9 19 19
397 328 93 9 18 21
396 328 94 8 17 20
396 328 95 6 16 18
396 329 94 9 18 21
396 329 95 8 17 20
397 328 94 9 18 21
397 329 94 9 18 21
397 329 95 9 18 21
397 330 95 10 18 18
398 328 92 8 16 16
398 328 93 9 17 17
398 329 92 7 16 15
398 329 93 8 16 16
399 329 92 5 14 13
399 329 93 6 15 14
398 328 94 10 18 18
398 329 94 10 18 18
398 329 95 10 18 18
398 330 93 7 16 15
399 330 92 4 12 12
399 330 93 5 14 13
399 331 93 5 13 15
398 330 94 9 17 18
398 330 95 9 17 18
398 331 95 8 16 17
399 330 94 7 15 16
399 330 95 8 16 17
399 331 94 5 13 15
399 331 95 6 14 16
399 332 95 5 14 13
401 320 64 5 14 13
401 320 65 5 13 15
400 320 67 4 12 14
401 320 66 4 12 14
401 320 67 4 12 12
402 320 64 4 12 12
402 320 65 5 14 13
403 320 64 3 11 11
403 320 65 4 12 12
403 321 64 3 11 11
403 321 65 4 12 12
402 320 66 4 12 12
402 320 67 3 11 11
402 321 66 4 12 12
402 321 67 4 12 12
403 320 66 4 12 12
403 321 66 4 12 12
403 321 67 3 13 12
403 322 65 4 12 12
403 322 66 4 12 12
403 322 67 3 11 11
400 320 68 3 11 11
400 320 69 3 11 11
400 321 69 4 12 12
401 320 68 4 12 12
401 320 69 3 11 11
401 321 68 4 12 12
401 321 69 3 11 13
400 320 70 4 12 14
400 320 71 4 12 14
400 321 70 4 12 14
400 321 71 3 11 13
401 321 70 4 12 14
401 321 71 4 12 14
401 322 70 3 11 13
401 322 71 4 12 12
402 320 68 4 12 12
402 321 68 4 12 12
402 321 69 4 12 12
403 321 68 4 13 10
402 321 70 3 11 13
402 322 68 4 12 14
402 322 69 3 11 13
403 322 68 4 12 14
403 322 69 4 12 14
403 323 69 2 10 12
402 322 70 3 11 13
402 322 71 3 11 13
402 323 71 3 11 13
403 322 70 3 11 13
403 322 71 3 11 13
403 323 70 3 11 13
403 323 71 3 11 11
404 320 64 4 12 12
404 321 64 3 11 11
404 321 65 3 11 11
405 321 64 4 12 14
404 322 64 3 11 13
404 322 65 4 12 14
405 322 64 4 12 14
405 322 65 4 12 14
405 323 65 4 12 14
404 322 66 4 12 14
404 322 67 4 12 14
404 323 67 4 12 14
405 322 66 4 12 14
405 322 67 4 12 14
405 323 66 4 12 14
405 323 67 4 12 14
406 322 64 4 12 14
406 322 65 4 12 14
406 323 64 4 12 14
406 323 65 4 12 14
407 322 64 5 13 15
407 323 64 5 13 15
407 323 65 3 11 11
406 323 66 3 11 11
406 323 67 3 11 13
404 322 68 3 11 13
404 322 69 3 11 13
404 323 68 3 11 13
404 323 69 3 11 13
405 323 68 2 10 12
405 323 69 3 11 13
404 323 70 4 12 14
404 323 71 3 11 13
405 323 70 4 12 12
405 324 67 3 11 11
406 324 65 3 11 11
407 324 64 3 11 11
407 324 65 3 11 13
406 324 66 3 11 13
406 324 67 3 11 13
407 324 66 3 11 13
407 324 67 3 11 13
407 325 66 3 11 13
407 325 67 4 10 10
405 324 68 4 10 10
405 324 69 3 11 13
404 324 70 4 12 14
404 324 71 3 11 13
405 324 70 3 11 13
405 324 71 3 11 13
405 325 70 3 11 13
405 325 71 3 11 14
405 326 71 4 12 12
406 324 68 2 10 10
406 324 69 3 11 11
406 325 69 3 11 11
407 324 68 3 11 11
407 324 69 3 11 11
407 325 68 2 10 10
407 325 69 2 10 10
406 324 70 3 11 11
406 325 70 4 12 12
406 325 71 4 12 12
407 325 70 3 11 11
407 326 68 2 10 10
407 326 69 2 10 10
406 326 70 3 11 11
406 326 71 3 11 11
407 326 70 3 11 11
407 326 71 3 11 11
407 327 70 3 11 11
407 327 71 3 11 11
400 320 72 4 12 12
400 321 72 4 12 12
400 321 73 4 12 12
401 321 72 4 12 14
400 321 74 4 12 14
400 321 75 3 13 14
400 322 72 3 13 14
400 322 73 4 14 15
401 322 72 3 13 14
401 322 73 3 13 14
401 323 72 3 13 14
401 323 73 5 14 13
400 322 74 4 12 12
400 322 75 5 14 13
400 323 75 5 14 13
401 322 74 5 14 13
401 322 75 4 12 12
401 323 74 5 14 13
401 323 75 5 14 13
402 322 72 4 12 12
402 323 72 4 12 12
402 323 73 5 14 13
403 323 72 3 11 11
403 323 73 4 12 12
402 323 74 5 14 13
402 323 75 5 14 13
400 321 76 5 14 13
400 322 76 5 14 13
400 322 77 6 15 14
400 323 76 5 14 13
400 323 77 6 15 14
401 323 76 6 15 14
401 323 77 6 15 14
400 323 78 5 14 13
400 323 79 4 13 10
401 324 75 5 14 13
402 324 73 4 12 12
403 324 72 3 11 11
403 324 73 4 12 12
402 324 74 4 12 12
402 324 75 5 14 13
403 324 74 5 14 13
403 324 75 4 12 12
403 325 74 4 12 12
403 325 75 4 12 12
400 324 77 6 15 14
401 324 76 5 14 13
401 324 77 5 14 13
401 325 77 3 13 12
400 324 78 4 14 13
400 324 79 3 13 12
401 324 78 4 14 13
401 324 79 4 14 13
401 325 78 4 14 13
401 325 79 5 13 15
402 324 76 5 13 15
402 324 77 4 12 14
402 325 76 5 13 15
402 325 77 5 13 15
403 324 76 5 13 15
403 325 76 4 12 14
403 325 77 6 14 16
402 325 78 5 13 15
402 325 79 6 14 16
403 325 78 6 14 16
403 325 79 6 14 16
403 326 77 5 14 13
402 326 79 6 15 14
403 326 78 5 14 13
403 326 79 5 14 11
404 323 72 3 11 11
404 324 72 3 11 11
404 324 73 3 11 11
404 325 72 4 12 12
404 325 73 3 11 11
405 324 72 4 12 12
405 325 72 4 12 12
405 325 73 3 11 11
404 324 74 3 11 11
404 325 74 3 11 11
404 325 75 3 11 11
405 325 74 3 11 11
405 325 75 6 12 12
405 326 72 5 11 11
405 326 73 5 11 11
404 326 75 6 12 12
405 326 74 6 12 12
405 326 75 7 13 13
406 326 72 5 11 11
406 326 73 6 12 12
406 327 73 5 11 11
407 326 72 5 11 11
407 326 73 5 11 11
407 327 72 4 10 10
407 327 73 3 11 11
406 326 74 4 12 12
406 326 75 5 14 13
406 327 74 4 12 12
406 327 75 4 12 12
407 327 74 3 11 11
407 327 75 3 11 11
404 325 76 4 12 12
404 325 77 5 14 13
404 326 76 6 15 14
404 326 77 5 14 13
404 327 77 4 12 12
405 326 76 6 15 14
405 326 77 5 14 13
405 327 76 5 14 13
405 327 77 4 12 12
404 326 78 5 14 13
404 326 79 5 14 13
404 327 78 4 12 12
404 327 79 4 12 12
405 327 78 4 12 12
405 327 79 6 12 12
406 326 76 7 13 13
406 327 76 6 12 12
406 327 77 6 12 12
407 327 76 4 12 12
406 327 78 3 13 12
407 328 71 3 11 11
407 328 72 2 10 10
407 328 73 2 10 10
407 328 74 2 10 10
407 328 75 2 10 10
405 328 78 4 12 12
405 328 79 4 12 12
406 328 76 4 12 12
406 328 77 4 12 12
406 329 76 4 12 12
406 329 77 4 12 12
407 328 76 4 12 12
407 329 76 4 12 12
407 329 77 3 11 11
406 328 78 4 12 12
406 328 79 5 14 13
406 329 78 4 12 12
406 329 79 4 12 12
406 330 77 3 11 11
407 330 76 3 11 11
407 330 77 3 11 11
406 330 78 3 11 11
406 330 79 3 11 11
406 331 79 3 11 11
407 330 78 4 12 12
407 330 79 4 12 12
407 331 78 3 11 11
407 331 79 3 12 7
408 323 64 4 12 12
408 324 64 3 11 11
408 324 65 3 11 11
408 325 64 3 11 11
408 325 65 3 11 11
409 324 64 3 11 11
409 324 65 3 11 11
409 325 64 2 10 10
409 325 65 3 11 13
408 324 66 3 11 13
408 325 66 2 10 12
408 325 67 2 10 12
409 324 66 3 11 13
409 325 66 3 11 13
409 325 67 3 11 11
409 326 65 4 12 12
408 326 67 2 10 10
408 327 67 2 10 10
409 326 66 3 11 11
409 326 67 3 11 11
409 327 67 4 10 10
410 325 64 4 10 10
410 325 65 5 11 11
410 326 64 4 10 10
410 326 65 5 11 11
410 327 64 4 10 10
410 327 65 5 11 11
411 326 64 4 10 10
411 327 64 4 10 10
410 326 66 5 11 11
410 326 67 4 10 10
410 327 66 4 10 10
410 327 67 2 11 8
408 325 68 4 10 10
408 326 68 4 10 10
408 326 69 4 10 10
408 327 68 4 10 10
408 327 69 4 10 10
409 327 68 4 10 10
409 327 69 4 10 8
408 326 70 4 10 8
408 327 70 5 11 9
408 327 71 5 11 9
409 327 70 5 11 9
409 327 71 5 11 9
410 327 68 2 11 8
408 327 72 3 12 9
408 327 73 2 10 10
410 328 64 2 10 10
410 328 65 1 9 9
411 328 64 2 10 10
411 328 65 1 9 9
411 329 64 1 9 9
411 329 65 1 10 7
410 328 66 1 10 7
410 328 67 2 11 8
411 328 66 1 10 7
411 328 67 2 11 8
411 329 66 3 12 9
411 329 67 4 10 8
411 330 66 4 10 8
411 330 67 4 10 8
409 328 68 4 10 8
409 328 69 4 10 8
409 329 69 5 11 9
408 328 71 4 10 8
409 328 70 4 10 8
409 328 71 4 10 8
409 329 70 4 10 8
409 329 71 4 10 8
410 328 68 5 11 9
410 328 69 4 10 8
410 329 68 4 10 8
410 329 69 3 9 7
411 328 68 4 10 8
411 329 68 4 10 10
410 329 70 3 9 9
410 329 71 4 10 8
410 330 68 4 10 8
410 330 69 3 9 7
411 330 68 4 10 8
411 330 69 3 9 7
411 331 68 3 9 7
411 331 69 2 8 6
410 330 70 3 9 7
410 330 71 4 10 8
411 330 70 2 8 6
411 330 71 4 10 8
411 331 70 3 9 7
411 331 71 3 11 11
412 328 64 1 9 9
412 329 64 1 9 9
412 329 65 1 9 9
412 329 66 2 11 8
412 330 64 1 10 7
412 330 65 0 9 6
412 331 65 0 9 6
413 330 64 1 10 7
413 330 65 1 10 7
413 331 64 0 9 6
413 331 65 1 9 9
412 330 66 1 9 9
412 330 67 2 10 10
412 331 66 1 9 9
412 331 67 1 9 9
413 331 66 1 9 9
413 331 67 1 10 7
414 331 64 0 9 6
414 331 65 0 9 6
412 330 68 2 11 8
412 330 69 1 10 7
412 331 68 1 10 7
412 331 69 2 8 6
412 330 70 3 9 7
412 331 70 3 9 7
412 331 71 4 10 8
413 332 65 2 8 6
412 332 67 3 9 7
413 332 66 3 9 7
413 332 67 3 9 7
413 333 67 2 8 8
414 332 64 2 8 8
414 332 65 2 8 8
414 333 64 1 7 7
414 333 65 2 8 8
415 332 64 2 8 8
415 333 64 2 8 8
415 333 65 2 8 6
414 332 66 3 9 7
414 332 67 2 8 6
414 333 66 2 8 6
414 333 67 2 8 6
415 333 66 3 9 7
415 333 67 0 8 8
415 334 64 0 8 8
415 334 65 3 9 9
414 334 67 2 8 8
415 334 66 3 9 9
415 334 67 2 8 8
415 335 66 3 9 9
415 335 67 2 8 8
412 332 68 3 9 9
412 332 69 2 8 8
413 332 68 3 9 9
413 332 69 3 9 9
413 333 68 2 8 8
413 333 69 3 9 7
412 332 70 3 9 7
412 332 71 3 9 7
412 333 71 3 9 7
413 332 70 2 8 6
413 332 71 3 9 7
413 333 70 1 7 5
413 333 71 2 8 6
413 334 70 1 7 5
413 334 71 3 9 7
414 333 68 2 8 6
414 333 69 3 9 7
414 333 70 2 8 6
414 334 68 3 9 7
414 334 69 3 9 7
414 335 69 3 9 7
415 334 68 3 9 7
415 334 69 4 10 8
415 335 68 3 9 7
415 335 69 2 8 6
414 334 70 2 8 6
414 334 71 2 8 6
414 335 70 2 8 6
414 335 71 2 8 6
415 335 70 2 8 6
415 335 71 2 8 6
408 328 72 5 11 9
408 328 73 4 10 8
408 329 73 4 10 8
409 328 72 4 10 8
409 328 73 4 10 8
409 329 72 4 10 8
409 329 73 4 10 8
408 328 74 4 10 8
408 328 75 4 10 8
408 329 74 5 11 9
408 329 75 4 10 8
409 329 74 5 9 8
409 330 72 6 10 9
409 330 73 5 11 9
408 330 74 5 11 9
408 330 75 4 10 8
408 331 75 4 10 8
409 330 74 4 10 8
409 330 75 4 10 8
409 331 74 4 10 8
409 331 75 4 10 10
410 329 72 5 11 11
410 330 72 4 10 10
410 330 73 5 11 11
410 331 73 4 10 10
411 330 72 4 10 10
411 330 73 4 10 10
411 331 72 4 10 10
411 331 73 4 10 8
410 330 74 4 10 8
410 331 74 4 10 8
410 331 75 4 10 8
411 331 74 2 10 10
408 328 76 3 11 11
408 329 76 3 11 11
408 330 76 3 11 11
408 330 77 4 12 12
408 331 76 3 11 11
408 331 77 3 11 11
409 331 76 3 11 11
409 331 77 3 12 9
408 330 78 2 11 8
408 331 78 4 13 10
408 331 79 5 11 9
410 331 76 5 11 9
411 332 72 4 10 8
411 332 73 4 10 8
411 333 73 4 10 8
410 332 74 4 10 8
410 332 75 4 10 8
410 333 75 4 10 8
411 332 74 4 10 8
411 332 75 4 10 8
411 333 74 3 9 7
411 333 75 1 10 7
411 334 75 3 9 7
408 332 77 5 11 9
409 332 76 5 11 9
409 332 77 5 11 9
409 333 77 2 10 10
408 332 78 3 11 11
408 332 79 3 11 11
408 333 79 3 11 11
409 332 78 3 11 11
409 332 79 3 11 11
409 333 78 3 11 11
409 333 79 3 11 11
409 334 78 3 11 11
409 334 79 3 11 11
410 332 76 3 11 11
410 332 77 2 10 10
410 333 76 2 10 10
410 333 77 3 11 11
411 333 76 2 10 10
411 333 77 5 11 11
410 333 78 3 11 11
410 334 77 3 11 11
411 334 76 3 11 11
411 334 77 3 11 11
411 335 76 2 10 10
411 335 77 2 10 10
410 334 78 4 12 12
410 334 79 3 11 11
410 335 78 3 11 11
410 335 79 3 11 11
411 334 78 3 11 11
411 335 78 2 10 10
411 335 79 2 12 11
412 331 72 4 10 8
412 332 72 4 10 8
412 332 73 3 9 7
412 333 72 4 10 8
412 333 73 4 10 8
413 333 72 4 10 8
413 333 73 4 10 8
412 333 74 3 9 7
412 333 75 3 9 7
412 334 73 4 10 8
413 334 72 3 9 7
413 334 73 4 10 8
413 335 72 2 8 6
413 335 73 2 11 8
412 334 74 0 9 6
412 334 75 2 11 8
412 335 75 2 11 8
413 334 74 1 10 7
413 334 75 1 10 7
413 335 74 2 11 8
413 335 75 1 9 9
414 334 72 0 8 8
414 335 72 0 8 8
414 335 73 2 10 10
415 335 72 0 6 6
414 335 74 4 10 10
412 334 76 5 11 11
412 335 76 4 10 10
412 335 77 4 10 10
413 335 76 2 10 12
412 335 78 2 10 12
400 324 80 5 13 15
400 324 81 4 12 14
400 325 80 5 13 15
400 325 81 5 13 15
401 324 80 5 13 15
401 325 80 5 13 15
401 325 81 5 14 13
400 324 82 4 12 12
400 325 82 4 12 12
400 325 83 3 11 11
400 326 81 5 14 13
401 326 81 4 14 15
400 326 82 3 13 14
400 326 83 2 12 13
401 326 82 3 13 14
401 326 83 3 11 11
402 325 80 6 15 14
402 325 81 6 14 16
402 326 80 5 13 15
402 326 81 6 14 16
403 326 80 6 14 16
403 326 81 6 14 16
403 327 80 5 13 15
403 327 81 5 14 13
402 326 82 4 12 12
402 326 83 5 14 13
402 327 82 5 14 13
402 327 83 5 14 13
403 326 82 5 14 13
403 327 82 5 14 13
403 327 83 5 14 13
400 325 84 3 11 11
400 326 84 4 12 12
400 326 85 3 11 11
400 327 84 3 11 11
400 327 85 3 11 11
401 326 84 3 11 11
401 327 84 4 12 12
401 327 85 4 12 12
400 326 86 3 11 11
400 327 86 3 11 11
400 327 87 3 11 11
401 327 86 3 11 11
401 327 87 2 10 10
402 326 84 4 12 12
402 327 84 4 12 12
402 327 85 4 12 12
403 327 84 5 13 15
404 326 80 5 13 15
404 327 80 6 14 16
404 327 81 5 13 15
405 327 80 7 13 13
404 327 82 5 14 13
400 327 88 2 10 10
403 328 82 5 14 13
403 328 83 8 14 14
401 328 85 4 12 12
400 328 87 3 11 11
401 328 86 3 11 11
401 328 87 3 11 11
401 329 87 3 11 11
402 328 84 5 14 13
402 328 85 5 14 13
403 328 84 5 14 13
403 328 85 5 14 13
403 329 84 4 12 12
403 329 85 5 14 13
402 328 86 3 11 11
402 328 87 3 11 11
402 329 86 3 11 11
402 329 87 4 12 12
403 328 86 5 14 13
403 329 86 4 12 12
403 329 87 4 12 12
403 330 84 4 12 12
403 330 85 6 15 14
403 330 86 5 14 13
403 330 87 5 14 13
403 331 86 5 14 13
403 331 87 5 14 13
403 332 87 4 12 12
404 328 80 4 12 12
404 328 81 5 14 13
405 328 80 5 14 13
405 328 81 4 12 12
405 329 80 4 12 12
405 329 81 5 14 13
404 328 82 5 14 13
404 328 83 5 14 13
404 329 82 5 14 13
404 329 83 5 14 13
405 328 82 5 14 13
405 329 82 5 14 13
405 329 83 5 14 13
405 330 82 4 12 12
405 330 83 4 12 12
405 331 83 6 12 12
406 328 80 6 12 12
406 329 80 6 12 12
406 329 81 7 13 13
406 329 82 4 12 12
406 330 80 4 12 12
406 330 81 3 11 11
406 331 80 3 11 11
406 331 81 3 11 11
407 331 80 3 11 11
407 331 81 2 10 10
406 330 82 4 12 12
406 330 83 4 12 12
406 331 82 4 12 12
406 331 83 4 12 14
404 328 84 4 12 14
404 329 84 4 12 14
405 329 84 5 13 15
404 330 84 5 13 15
404 330 85 5 13 15
404 331 84 5 13 15
404 331 85 5 13 15
405 330 84 4 12 14
405 331 84 3 11 13
405 331 85 5 14 13
404 330 86 5 14 13
404 331 86 5 14 13
404 331 87 4 12 12
405 331 86 5 14 13
406 331 84 4 13 10
406 332 81 3 12 9
407 332 81 3 12 9
407 333 81 3 11 11
406 332 82 3 11 11
406 332 83 3 11 11
407 332 82 3 11 11
407 332 83 4 12 12
407 333 82 3 11 11
407 333 83 4 13 10
407 334 82 3 12 9
407 334 83 4 12 12
405 332 84 3 11 11
405 332 85 4 12 12
405 333 85 4 12 12
404 332 86 5 14 13
404 332 87 4 12 12
405 332 86 5 14 13
405 332 87 4 12 12
405 333 86 5 14 13
405 333 87 4 12 12
405 334 86 4 12 12
405 334 87 6 12 12
406 332 84 5 11 11
406 332 85 6 12 12
406 333 84 5 11 11
406 333 85 6 12 12
407 332 84 6 12 12
407 333 84 6 12 12
407 333 85 4 12 12
406 333 86 5 14 13
406 334 85 2 10 10
407 334 84 3 11 11
407 334 85 3 11 11
407 335 84 3 11 11
407 335 85 3 12 9
406 334 86 4 13 10
406 334 87 3 12 9
406 335 86 4 13 10
406 335 87 3 12 9
407 334 86 4 13 10
407 334 87 5 14 11
407 335 86 3 12 9
407 335 87 4 12 12
400 328 88 2 10 10
400 328 89 3 11 11
400 329 88 2 10 10
400 329 89 3 11 11
401 328 88 2 10 10
401 329 88 2 10 10
401 329 89 4 10 10
400 328 90 5 11 11
400 329 90 5 11 11
400 329 91 7 13 11
400 330 89 4 10 8
401 330 89 4 10 10
400 330 90 4 10 10
400 330 91 5 11 11
400 331 91 4 10 10
401 330 90 3 9 9
401 330 91 4 10 10
401 331 90 5 11 11
401 331 91 2 10 10
402 329 88 3 11 11
402 329 89 3 11 11
403 329 88 5 11 11
402 330 88 5 11 11
402 330 89 5 11 11
403 330 88 6 12 12
403 330 89 6 12 12
403 331 88 6 12 12
403 331 89 4 12 12
402 330 90 2 10 10
402 331 90 2 10 10
402 331 91 3 11 11
403 330 90 3 11 11
403 331 90 3 11 11
403 331 91 2 12 13
400 329 92 6 12 10
400 330 92 5 11 9
400 330 93 6 12 10
400 331 92 5 11 9
400 331 93 6 12 10
401 331 92 5 11 9
401 331 93 3 11 11
400 331 94 4 12 12
400 331 95 7 13 11
401 332 91 3 11 11
403 332 88 3 11 11
403 332 89 4 12 12
403 333 88 4 12 12
403 333 89 5 13 15
402 332 91 3 11 13
403 332 90 3 11 13
403 332 91 3 11 13
403 333 90 3 11 13
403 333 91 3 11 11
403 334 90 4 12 12
403 334 91 3 12 9
400 332 93 4 13 10
401 332 92 3 12 9
401 332 93 3 12 9
401 333 93 4 10 10
400 332 94 6 12 12
400 332 95 6 12 12
401 332 94 5 11 11
401 332 95 6 12 12
401 333 94 4 10 10
401 333 95 5 11 11
401 334 95 2 10 10
402 332 92 3 11 11
402 332 93 3 11 11
402 333 92 3 11 11
402 333 93 3 11 11
403 332 92 3 11 11
403 333 92 3 11 11
403 333 93 6 12 10
402 333 94 5 11 9
402 333 95 4 10 10
402 334 93 5 11 11
403 334 92 6 12 12
403 334 93 3 11 11
402 334 94 3 11 11
402 334 95 2 10 10
402 335 95 2 10 10
403 334 94 3 11 11
403 334 95 3 11 11
403 335 94 3 11 11
403 335 95 2 10 10
404 332 88 4 12 12
404 333 88 4 12 12
404 333 89 5 14 13
405 332 88 4 12 12
405 333 88 4 12 12
404 333 90 6 15 12
404 334 88 4 13 10
404 334 89 4 13 10
405 334 88 5 14 11
405 334 89 4 13 10
405 335 88 5 14 11
405 335 89 3 11 11
404 334 90 5 14 13
404 334 91 4 12 12
404 335 90 5 14 13
404 335 91 4 12 12
405 334 90 5 14 13
405 335 90 5 14 13
405 335 91 4 12 12
406 334 88 4 12 12
406 335 88 4 12 12
406 335 89 4 12 12
407 334 88 4 12 12
407 335 88 3 11 11
407 335 89 3 11 11
406 335 90 6 15 12
404 334 92 4 13 10
404 334 93 3 12 9
404 335 92 4 13 10
404 335 93 4 13 10
405 335 92 5 14 11
404 334 94 3 12 9
404 335 94 3 12 9
408 331 80 3 12 9
408 331 81 3 12 9
408 332 80 3 12 9
408 332 81 3 12 9
408 333 80 2 11 8
408 333 81 2 11 8
409 333 80 3 12 9
408 333 82 3 12 9
408 334 80 3 12 9
408 334 81 2 11 8
409 334 80 3 12 9
409 334 81 2 11 8
409 335 80 2 11 8
409 335 81 2 11 8
408 334 82 2 11 8
408 334 83 3 12 9
408 335 82 2 11 8
408 335 83 2 11 8
409 334 82 2 11 8
409 335 82 2 11 8
409 335 83 2 11 8
410 334 80 3 12 9
410 335 80 2 11 8
410 335 81 3 11 11
408 334 84 3 11 11
408 335 84 3 11 11
408 335 85 5 11 11
408 335 86 5 11 11
408 335 87 6 12 12
415 336 68 1 7 7
415 336 69 1 7 5
415 336 70 1 7 5
415 336 71 2 8 6
415 337 71 0 7 9
410 336 79 3 11 13
411 336 78 2 10 12
411 336 79 2 10 10
413 336 74 2 10 10
413 336 75 1 9 9
413 337 75 4 10 8
414 336 72 2 8 6
414 336 73 3 9 7
414 337 73 3 9 7
415 336 72 2 8 6
415 336 73 2 8 6
415 337 72 2 8 6
415 337 73 2 8 6
414 336 74 3 9 7
414 336 75 3 9 7
414 337 74 3 9 7
414 337 75 3 9 7
415 337 74 2 8 6
415 338 72 3 9 7
415 338 73 3 9 7
415 339 72 4 10 8
415 339 73 4 10 8
414 338 74 3 9 7
414 338 75 2 8 6
414 339 74 3 9 7
414 339 75 2 8 6
415 338 74 3 9 7
415 338 75 2 8 6
415 339 74 2 8 6
415 339 75 1 7 7
412 336 76 4 10 10
412 336 77 3 9 9
413 336 76 5 11 11
413 336 77 3 9 9
413 337 76 3 9 9
413 337 77 2 8 8
412 336 78 4 10 10
412 336 79 3 9 9
412 337 78 5 11 11
412 337 79 4 10 10
413 336 78 3 9 9
413 337 78 3 9 9
413 337 79 2 8 8
413 338 77 2 8 8
413 339 76 3 9 9
413 339 77 2 8 4
413 338 78 3 9 5
413 338 79 3 9 5
413 339 78 2 8 4
413 339 79 2 8 6
414 337 76 3 9 7
414 337 77 2 8 6
414 338 76 2 8 6
414 338 77 2 8 6
414 339 76 2 8 6
414 339 77 1 7 5
414 340 73 3 9 7
414 341 73 2 8 6
415 340 73 2 8 6
415 341 72 3 9 7
415 341 73 0 9 6
414 340 74 0 9 6
414 340 75 0 8 5
414 341 74 0 9 6
414 341 75 0 7 4
415 340 74 0 9 6
415 341 74 0 9 6
415 341 75 2 8 6
415 342 72 2 8 6
415 342 73 2 8 6
415 342 74 2 8 6
415 342 75 2 8 6
415 343 74 1 7 5
415 343 75 2 8 6
413 340 76 1 7 5
413 340 77 3 7 6
413 340 78 3 7 6
413 340 79 3 7 6
413 341 78 3 7 6
413 341 79 3 9 7
413 342 79 2 8 6
414 340 76 1 7 5
414 340 77 2 8 6
414 341 76 0 6 4
414 341 77 1 7 5
415 341 76 2 8 8
414 340 78 2 8 8
414 341 78 1 7 7
414 341 79 3 9 7
414 342 76 2 8 6
414 342 77 0 6 4
415 342 76 1 7 5
415 342 77 0 6 4
415 343 76 1 7 5
415 343 77 2 6 5
414 342 78 2 6 5
414 342 79 3 7 6
414 343 78 2 6 5
414 343 79 3 7 6
415 342 78 2 6 5
415 343 78 1 5 4
415 343 79 1 7 5
415 344 76 1 7 5
415 344 77 1 7 5
414 344 79 1 7 5
415 344 78 1 7 5
415 344 79 1 7 5
415 345 78 1 7 5
415 345 79 2 6 7
415 346 79 3 7 8
415 347 79 2 6 5
407 336 87 3 11 11
402 336 95 2 10 10
403 336 94 3 11 11
403 336 95 3 11 11
403 337 95 6 12 12
405 336 90 7 13 13
405 336 91 6 12 12
405 337 91 4 12 12
406 336 89 4 12 12
407 336 88 3 11 11
407 336 89 3 11 11
407 337 88 4 12 12
407 337 89 5 11 11
406 336 90 7 13 13
406 336 91 6 12 12
406 337 90 6 12 12
406 337 91 6 12 12
407 336 90 7 13 13
407 337 90 7 13 13
407 337 91 7 13 11
406 338 91 6 12 10
407 338 90 7 13 11
407 338 91 5 11 11
404 336 92 7 13 13
404 336 93 6 12 12
405 336 92 6 12 12
405 336 93 6 12 12
405 337 92 6 12 12
405 337 93 4 13 10
404 336 94 4 13 10
404 336 95 3 12 9
404 337 94 4 13 10
404 337 95 3 12 9
405 336 94 4 13 10
405 337 94 4 13 10
405 337 95 5 11 11
405 338 94 5 11 11
405 338 95 6 12 12
405 339 95 5 11 11
406 337 92 6 12 12
406 337 93 3 12 9
406 337 94 3 12 9
406 338 92 4 13 10
406 338 93 4 13 10
406 339 93 4 13 10
407 338 92 3 12 9
407 338 93 3 12 9
407 339 92 3 12 9
407 339 93 3 11 11
406 338 94 4 12 12
406 338 95 4 12 12
406 339 94 3 11 11
406 339 95 3 11 11
407 339 94 3 11 11
407 340 93 5 11 11
406 340 94 5 11 11
406 340 95 5 11 11
407 340 94 5 11 11
407 340 95 5 11 11
407 341 94 5 11 11
407 341 95 3 12 9
407 342 95 5 11 7
409 336 81 2 11 8
408 336 83 2 11 8
409 336 82 2 11 8
409 336 83 2 11 8
409 337 83 2 11 8
410 336 80 2 11 8
410 336 81 2 11 8
410 337 81 2 11 8
411 336 80 2 11 8
411 336 81 2 11 8
411 337 80 2 11 8
411 337 81 4 10 8
410 336 82 5 11 9
410 336 83 4 10 8
410 337 82 5 11 9
410 337 83 5 11 9
411 337 82 4 10 8
411 337 83 5 11 11
411 338 82 4 10 10
411 338 83 5 11 11
411 339 83 4 10 10
408 336 84 5 11 11
408 336 85 5 11 11
409 336 84 4 10 10
409 336 85 5 11 11
409 337 84 4 10 10
409 337 85 5 11 11
408 336 86 4 10 10
408 336 87 5 11 11
408 337 86 4 10 10
408 337 87 5 11 11
409 336 86 5 11 11
409 337 86 5 11 11
409 337 87 5 11 11
409 338 86 5 11 11
409 338 87 5 11 11
410 337 84 4 10 10
410 337 85 4 10 10
411 337 84 2 11 8
410 337 86 3 12 9
410 338 84 2 11 8
410 338 85 3 12 9
410 339 85 3 12 9
411 338 84 1 10 7
411 338 85 3 12 9
411 339 84 2 11 8
411 339 85 2 10 10
410 338 86 3 11 11
410 338 87 3 11 11
410 339 86 2 10 10
410 339 87 2 10 10
411 339 86 2 10 10
411 339 87 3 9 7
411 340 85 2 11 8
410 340 87 3 12 9
411 340 86 2 11 8
411 340 87 1 10 7
411 341 86 1 10 7
411 341 87 0 9 6
411 342 86 1 10 7
411 342 87 2 11 8
411 343 87 1 9 9
412 336 80 1 9 9
412 337 80 1 9 9
412 337 81 0 8 8
413 337 80 2 8 8
412 337 82 1 9 9
412 338 80 2 10 10
412 338 81 2 10 10
412 339 81 2 10 10
413 338 80 1 9 9
413 338 81 1 9 9
413 339 80 0 8 8
413 339 81 3 9 9
412 338 82 3 9 9
412 338 83 2 8 8
412 339 82 4 10 10
412 339 83 3 9 9
413 339 82 3 9 9
413 339 83 2 8 6
412 339 84 2 8 6
412 339 85 2 8 6
413 340 80 3 9 7
413 340 81 2 8 6
413 341 80 3 9 7
413 341 81 2 8 6
412 340 83 4 10 8
412 341 83 4 10 8
413 340 82 1 7 5
413 340 83 2 8 6
413 341 82 2 8 6
413 341 83 3 9 7
413 342 80 2 8 6
413 342 81 2 8 6
413 343 81 0 9 6
412 342 83 1 10 7
413 342 82 0 9 6
413 342 83 0 9 6
413 343 82 0 8 5
413 343 83 0 9 6
414 342 80 1 10 7
414 342 81 0 9 6
414 343 80 0 8 5
414 343 81 0 8 5
414 343 82 0 7 7
412 340 84 2 10 10
412 340 85 0 7 7
412 341 84 0 8 8
412 341 85 0 8 8
413 340 84 0 8 8
413 341 84 2 8 6
412 340 86 2 8 6
412 341 86 3 9 7
412 342 84 2 8 6
412 342 85 2 8 6
412 343 84 2 8 6
412 343 85 2 8 6
413 342 84 2 8 6
413 343 84 2 8 8
412 342 86 2 8 8
412 342 87 3 9 9
412 343 86 2 8 8
412 343 87 2 8 6
408 336 88 6 12 10
408 337 88 5 11 9
408 337 89 6 12 10
409 337 88 3 11 13
408 337 90 4 12 12
408 338 88 4 12 12
408 338 89 4 12 12
409 338 88 3 11 11
409 338 89 3 11 11
409 339 89 5 11 11
408 338 90 6 12 12
408 338 91 6 12 12
408 339 90 5 11 11
408 339 91 5 11 11
409 338 90 6 12 12
409 339 90 5 11 11
409 339 91 2 10 10
410 338 88 3 11 11
410 338 89 0 8 8
410 339 88 4 12 12
410 339 89 4 12 12
408 338 92 4 12 12
408 339 92 3 11 11
408 339 93 3 11 11
409 339 92 5 11 11
409 340 89 6 12 12
409 340 90 6 12 12
409 340 91 4 10 10
409 341 91 4 12 12
410 340 88 3 11 11
410 340 89 1 9 9
410 341 88 3 11 11
410 341 89 1 9 9
411 340 88 1 9 9
411 341 88 1 9 9
411 341 89 1 10 7
410 340 90 1 10 7
410 340 91 1 10 7
410 341 90 1 10 7
410 341 91 1 10 7
411 341 90 3 9 7
411 342 88 2 8 6
411 342 89 2 8 6
411 343 88 2 8 6
411 343 89 2 8 6
410 342 90 3 9 7
410 342 91 3 9 7
410 343 90 6 12 10
410 343 91 3 9 7
411 342 90 3 9 7
411 342 91 3 9 7
411 343 90 3 9 7
411 343 91 1 9 9
408 340 92 3 11 11
408 340 93 4 12 12
408 341 93 4 12 12
409 340 92 3 11 11
409 340 93 1 9 9
409 341 92 2 10 10
409 341 93 3 9 9
408 340 94 6 12 12
408 341 94 6 12 12
408 341 95 6 12 12
409 341 94 3 8 11
409 342 93 4 10 10
408 342 94 6 12 12
408 342 95 7 13 13
409 342 94 4 10 10
409 342 95 3 9 9
409 343 94 4 10 10
409 343 95 3 8 11
410 341 92 3 8 11
410 341 93 4 10 10
410 342 92 3 9 9
410 342 93 4 10 10
410 343 92 4 10 10
410 343 93 4 10 10
410 342 94 4 10 10
410 343 94 4 10 10
410 343 95 3 9 7
411 344 87 2 8 6
411 345 87 2 8 8
413 344 82 0 6 6
413 344 83 0 6 4
414 344 80 2 8 6
414 344 81 2 8 6
414 345 80 1 7 5
414 345 81 1 7 5
415 344 80 1 7 5
415 345 80 1 7 5
415 345 81 2 8 6
414 344 82 1 7 5
414 344 83 1 7 5
414 345 82 1 7 5
414 345 83 2 8 6
414 346 81 1 7 5
415 346 80 2 8 6
415 346 81 1 7 5
415 347 80 1 7 5
415 347 81 1 7 5
414 346 82 2 8 6
414 346 83 1 7 5
415 346 82 2 8 6
415 346 83 1 7 5
415 347 82 3 9 7
415 347 83 0 7 7
412 344 84 0 7 7
412 344 85 0 8 8
413 344 84 0 7 7
413 344 85 0 7 7
413 345 84 0 7 7
413 345 85 2 8 6
412 344 86 2 8 6
412 344 87 2 8 6
412 345 86 2 8 6
412 345 87 1 7 5
413 344 86 2 8 6
413 345 86 3 9 7
413 345 87 3 9 7
413 346 85 2 8 6
413 347 85 2 8 6
412 346 87 2 8 6
413 346 86 2 8 6
413 346 87 2 8 6
413 347 86 2 8 6
413 347 87 1 7 5
414 344 84 0 6 4
414 345 84 1 7 5
414 345 85 2 8 6
414 346 84 1 7 5
414 346 85 2 8 6
414 347 84 1 7 5
414 347 85 3 9 7
415 346 84 1 7 5
415 347 84 1 7 5
415 347 85 3 9 7
414 346 86 1 7 5
414 346 87 2 8 6
414 347 86 2 8 6
414 347 87 1 7 5
415 347 86 2 8 6
415 348 81 2 8 6
415 348 82 3 9 7
415 348 83 2 8 6
415 349 83 0 9 6
413 348 87 0 8 5
413 349 87 1 7 5
414 348 85 3 9 7
414 349 85 2 8 6
415 348 84 1 7 5
415 348 85 2 8 6
415 349 84 1 7 5
415 349 85 2 8 6
414 348 86 1 7 5
414 348 87 1 7 5
414 349 86 1 7 5
414 349 87 1 7 5
415 348 86 1 7 5
414 350 85 2 8 6
415 350 84 1 7 5
415 350 85 2 8 6
415 351 84 1 7 5
415 351 85 1 7 5
414 350 86 1 7 5
414 350 87 1 7 5
414 351 86 2 8 6
414 351 87 1 7 5
415 350 86 2 8 6
415 351 86 1 7 5
415 351 87 1 7 7
411 344 88 2 8 8
411 344 89 1 7 7
411 345 88 1 7 7
411 345 89 2 8 8
410 344 90 3 9 9
410 344 91 3 9 9
410 345 90 1 7 7
410 345 91 1 7 7
411 344 90 1 7 7
411 345 90 1 7 7
411 346 88 2 8 8
411 346 89 2 8 6
410 346 90 1 7 5
410 346 91 2 8 6
410 347 91 1 7 5
411 346 90 1 7 5
411 346 91 2 8 6
411 347 90 1 7 5
411 347 91 0 6 6
409 344 95 5 11 11
409 345 95 5 11 11
409 346 95 2 8 8
409 347 95 3 9 9
410 344 92 3 9 9
410 344 93 3 9 9
410 345 92 2 8 8
410 345 93 2 8 6
410 344 94 3 9 7
410 344 95 2 8 6
410 345 94 1 7 5
410 345 95 1 7 5
410 346 92 2 8 6
410 346 93 1 7 5
410 347 92 1 7 5
410 347 93 2 8 6
411 347 92 1 7 5
411 347 93 1 7 5
410 346 94 1 7 5
410 346 95 1 7 5
410 347 94 2 8 6
410 347 95 2 8 6
411 347 94 2 8 4
411 348 90 2 8 4
411 348 91 2 8 4
411 349 91 1 7 5
410 348 93 2 8 6
410 349 93 0 6 4
411 348 92 1 7 5
411 348 93 0 6 4
411 349 92 1 7 5
411 349 93 0 6 4
410 348 94 2 8 6
410 348 95 1 7 5
410 349 94 1 7 5
410 349 95 1 7 5
411 348 94 1 7 5
411 349 94 1 7 5
411 349 95 2 6 5
411 350 93 2 6 5
411 351 93 2 6 5
410 350 95 2 6 5
411 350 94 2 6 5
411 350 95 3 7 6
411 351 94 2 6 5
411 351 95 2 8 6
412 345 88 1 7 5
412 346 88 1 7 5
412 346 89 1 7 5
412 347 88 1 7 5
412 347 89 1 7 5
413 346 88 1 7 5
413 347 88 1 7 5
412 346 90 1 7 5
412 347 90 2 8 6
412 348 88 1 7 5
412 348 89 3 9 7
412 349 88 1 7 5
412 349 89 2 8 6
413 348 88 1 7 5
413 349 88 1 7 5
413 349 89 1 7 5
412 348 90 1 7 5
412 348 91 1 7 5
412 349 90 2 8 6
412 349 91 1 7 5
412 350 89 1 7 5
413 350 88 1 7 5
413 350 89 2 8 6
413 351 88 2 8 6
413 351 89 2 8 6
412 350 90 3 9 7
412 350 91 1 7 5
413 350 90 2 8 6
413 350 91 1 7 5
413 351 90 1 7 5
413 351 91 0 8 5
414 349 88 1 7 3
414 350 88 2 8 4
414 351 88 2 8 4
414 351 89 3 9 5
412 349 92 2 8 4
412 349 93 1 7 5
412 350 92 1 7 5
412 350 93 1 7 5
412 351 92 0 6 4
412 351 93 1 7 5
413 350 92 1 7 5
413 351 92 1 7 5
412 351 94 1 7 5
412 351 95 2 8 6
384 321 96 5 13 15
384 322 96 5 13 15
384 322 97 6 14 16
384 323 96 6 14 16
384 323 97 7 15 16
385 322 96 6 14 16
385 323 96 7 15 16
385 323 97 7 15 16
384 323 98 7 15 16
384 323 99 5 13 15
385 323 98 7 17 17
386 323 96 5 15 16
386 323 97 6 16 16
387 323 96 6 14 16
385 324 97 6 16 16
384 324 98 6 16 16
384 324 99 6 16 16
385 324 98 7 17 17
385 324 99 8 18 18
385 325 99 8 18 18
386 324 96 5 15 16
386 324 97 6 16 16
387 324 96 5 15 16
387 324 97 6 16 16
386 324 98 8 18 18
386 324 99 9 19 19
386 325 98 8 18 18
386 325 99 8 18 18
387 324 98 7 17 17
387 325 98 7 17 17
387 325 99 8 17 20
387 326 99 8 18 18
384 324 100 4 14 15
384 324 101 4 14 15
384 325 100 6 16 16
384 325 101 4 14 15
385 324 100 6 16 16
385 325 100 8 18 18
385 325 101 7 15 16
384 325 102 5 13 15
385 325 102 6 14 16
385 326 101 8 16 17
384 326 102 6 14 16
384 326 103 4 12 14
384 327 103 5 13 15
385 326 102 7 15 16
385 326 103 6 14 16
385 327 103 4 14 15
386 325 100 8 18 18
386 325 101 7 17 17
387 325 100 9 19 19
387 325 101 8 18 18
386 326 101 7 17 17
386 327 101 7 17 17
387 326 100 8 18 18
387 326 101 8 18 18
387 327 101 8 17 20
386 326 102 7 16 19
386 326 103 6 16 18
386 327 102 7 16 19
386 327 103 7 16 19
387 327 102 9 18 21
387 327 103 8 20 19
388 323 96 5 14 13
388 324 96 5 14 13
388 324 97 7 16 15
388 325 96 5 14 13
388 325 97 7 16 15
389 324 96 4 12 12
389 325 96 5 14 13
389 325 97 5 13 15
388 324 98 7 15 16
388 325 98 7 15 16
388 325 99 8 16 17
389 325 98 7 16 13
389 326 97 5 14 13
388 326 98 8 16 16
388 326 99 9 17 17
388 327 99 9 17 17
389 326 98 7 16 15
389 326 99 8 16 16
389 327 99 7 15 16
390 325 96 6 14 16
390 325 97 5 13 15
391 325 96 7 16 15
390 326 96 6 15 14
390 326 97 4 12 12
390 327 97 4 12 12
391 326 96 6 15 14
391 326 97 5 14 13
391 327 97 7 13 13
390 326 98 7 13 13
390 326 99 9 15 15
390 327 98 5 11 11
390 327 99 8 14 14
391 327 98 6 12 12
391 327 99 4 14 15
388 326 100 8 18 18
388 326 101 9 19 19
388 327 100 8 18 18
388 327 101 9 19 19
389 327 100 7 17 17
389 327 101 8 18 18
388 327 102 9 19 19
389 327 102 9 19 19
390 327 100 6 16 16
390 327 101 8 18 18
391 327 100 6 15 14
384 326 104 3 11 11
384 327 104 4 12 12
384 327 105 4 12 12
385 327 104 5 14 13
385 327 105 4 14 15
384 327 106 4 12 12
386 327 104 7 17 17
386 328 103 8 18 18
387 328 102 9 19 19
387 328 103 9 19 19
391 328 98 3 13 14
391 328 99 6 12 12
389 328 101 8 18 18
388 328 102 9 19 19
388 328 103 9 19 19
388 329 103 8 18 18
389 328 102 9 19 19
389 328 103 9 19 19
389 329 102 8 18 18
389 329 103 9 19 19
390 328 100 6 16 16
390 328 101 7 17 17
391 328 100 6 16 16
391 328 101 7 17 17
391 329 101 7 17 17
390 328 102 7 17 17
390 329 102 7 17 17
390 329 103 9 19 19
391 328 102 7 17 17
391 329 102 7 17 17
391 329 103 9 17 18
390 330 103 9 17 18
391 330 103 8 18 18
384 328 105 3 13 14
385 328 104 6 16 16
385 328 105 5 14 13
384 328 106 4 12 12
384 328 107 3 11 11
384 329 107 4 12 12
385 328 106 4 12 12
385 328 107 5 14 13
385 329 106 5 14 13
385 329 107 5 14 13
384 330 107 4 12 12
385 330 107 4 14 15
386 328 104 7 17 17
386 328 105 4 14 15
386 329 105 5 15 16
387 328 104 8 18 18
387 328 105 6 16 16
387 329 104 8 18 18
387 329 105 9 17 17
386 328 106 5 14 13
386 329 106 6 15 14
386 329 107 6 15 14
387 329 106 7 16 15
387 329 107 7 16 15
386 330 107 6 15 14
387 330 106 9 17 17
387 330 107 8 16 16
387 331 107 8 18 18
384 329 108 3 13 14
384 329 109 5 14 13
384 330 108 5 14 13
384 330 109 5 14 13
384 331 109 4 12 12
385 330 108 5 14 13
385 330 109 5 14 13
385 331 108 5 14 13
385 331 109 5 13 15
384 330 110 5 13 15
384 331 110 5 13 15
384 331 111 5 13 15
385 331 110 6 14 16
386 330 108 6 14 16
386 331 108 6 14 16
386 331 109 5 13 15
387 330 108 6 14 16
387 331 108 7 15 16
387 331 109 6 15 14
385 332 109 4 12 14
384 332 110 4 12 14
384 332 111 5 13 15
384 333 111 5 13 15
385 332 110 4 12 14
385 332 111 6 14 16
385 333 110 5 13 15
385 333 111 5 13 15
386 332 109 6 14 16
387 332 109 7 15 16
386 332 110 5 13 15
386 333 110 6 14 16
386 333 111 6 14 16
387 332 110 7 15 16
387 333 110 7 15 16
387 333 111 7 15 16
387 334 111 6 16 16
388 328 104 9 19 19
388 329 104 9 19 19
388 329 105 9 19 19
389 329 104 9 19 19
389 329 105 8 17 20
388 329 106 8 18 18
388 330 105 9 19 19
389 330 104 9 19 19
389 330 105 9 19 19
388 330 106 9 19 19
388 330 107 8 18 18
388 331 106 9 19 19
388 331 107 9 19 19
389 330 106 9 19 19
389 331 106 10 20 20
389 331 107 9 19 19
390 329 104 9 19 19
390 330 104 9 19 19
390 330 105 9 19 19
390 331 105 9 19 19
391 330 104 9 19 19
391 330 105 9 19 19
391 331 104 9 19 19
391 331 105 10 20 19
390 330 106 10 20 19
390 331 106 10 20 19
390 331 107 10 20 19
391 331 106 10 20 19
388 331 108 7 17 16
388 331 109 6 16 15
389 331 108 8 18 18
389 332 107 10 18 18
390 332 106 10 18 18
390 332 107 11 19 19
390 333 107 10 18 18
391 332 106 10 18 18
391 332 107 11 19 19
391 333 107 11 19 19
391 334 107 9 17 18
388 332 108 8 16 17
388 332 109 8 16 17
388 333 109 9 17 18
389 332 108 9 17 18
389 332 109 8 16 17
389 333 108 10 18 19
389 333 109 9 17 17
388 332 110 8 16 16
388 333 110 8 16 16
388 333 111 8 16 16
389 333 110 8 16 17
388 334 110 9 17 18
388 334 111 8 16 17
388 335 111 8 16 17
389 334 110 9 17 18
389 334 111 8 16 17
389 335 111 9 17 18
390 332 108 10 18 19
390 333 108 10 18 19
390 333 109 9 17 18
391 333 108 9 17 18
391 333 109 9 19 19
390 333 110 8 18 18
390 334 109 8 18 18
391 334 108 9 19 19
391 334 109 9 19 19
391 335 109 8 18 18
390 334 110 8 18 18
390 334 111 9 19 19
390 335 110 9 19 19
390 335 111 9 19 19
391 334 110 9 19 19
391 335 110 9 19 19
391 335 111 10 18 19
392 326 96 6 14 16
392 326 97 5 13 15
392 327 96 6 14 16
392 327 97 5 13 15
393 327 96 5 13 15
393 327 97 5 15 14
392 327 98 6 11 15
394 327 96 4 12 14
392 328 97 6 14 16
393 328 96 5 13 15
393 328 97 5 14 13
392 328 98 4 12 12
392 328 99 3 11 11
392 329 98 4 12 12
392 329 99 3 11 11
393 328 98 5 14 13
393 329 98 5 14 13
393 329 99 3 11 13
393 330 99 3 13 14
394 328 96 4 14 15
394 328 97 4 14 15
394 329 96 4 14 15
394 329 97 4 14 15
395 328 96 4 14 15
395 329 96 5 15 16
395 329 97 4 12 12
394 328 98 5 14 13
394 329 98 5 14 13
394 329 99 5 14 13
395 329 98 4 12 12
395 329 99 5 14 13
394 330 99 5 14 13
395 330 98 5 14 13
395 330 99 5 14 13
395 331 99 4 12 12
392 328 100 4 12 12
392 328 101 7 16 15
392 329 100 4 12 12
392 329 101 7 16 15
393 329 100 3 11 11
393 329 101 5 15 14
392 329 102 7 17 16
392 329 103 8 18 17
393 329 102 7 16 15
393 330 100 3 11 11
393 330 101 5 14 13
393 331 101 4 12 14
392 330 102 8 16 17
392 330 103 9 17 18
392 331 103 10 18 19
393 330 102 8 16 17
393 330 103 9 17 18
393 331 102 7 15 16
393 331 103 9 17 17
394 330 100 4 12 12
394 330 101 3 11 11
394 331 101 3 11 11
395 330 100 4 12 12
395 330 101 2 10 10
395 331 100 4 12 12
395 331 101 3 11 11
394 331 102 5 14 13
394 331 103 8 16 16
395 331 102 2 10 10
395 331 103 6 15 14
393 332 103 8 18 18
395 332 101 4 10 10
394 332 103 9 15 15
395 332 102 4 10 10
395 332 103 8 14 14
395 333 103 4 14 15
396 328 96 5 15 16
396 329 96 6 16 16
396 329 97 4 14 15
397 329 96 7 16 21
396 329 98 3 13 15
396 330 96 7 16 19
396 330 97 6 16 18
397 330 96 9 18 21
397 330 97 9 18 21
397 331 96 10 19 22
397 331 97 9 19 19
396 330 98 4 14 15
396 330 99 4 14 15
396 331 98 6 16 16
396 331 99 5 15 16
397 330 98 7 17 17
397 331 98 9 19 19
397 331 99 8 16 17
398 330 96 10 18 19
398 331 96 10 18 19
398 331 97 11 19 20
399 331 96 7 17 17
398 331 98 10 20 20
398 331 99 9 19 19
396 331 100 4 14 15
396 331 101 2 12 13
396 332 99 6 16 16
397 332 99 9 17 18
398 332 96 9 17 18
398 332 97 9 17 18
399 332 96 7 15 16
399 332 97 7 15 16
399 333 97 6 15 14
398 332 98 10 18 18
398 332 99 11 19 19
398 333 98 9 17 17
398 333 99 10 18 18
399 332 98 9 17 17
399 333 98 8 16 16
399 333 99 8 16 16
399 334 98 6 15 14
399 334 99 6 16 16
396 332 100 4 14 15
396 332 101 4 14 15
396 333 101 4 14 15
397 332 100 6 16 16
397 332 101 5 15 16
397 333 100 7 17 17
397 333 101 6 15 14
396 332 102 2 10 10
396 332 103 4 12 12
396 333 102 3 11 11
396 333 103 3 11 11
397 333 102 4 12 12
397 333 103 4 12 12
397 334 102 4 12 12
397 334 103 2 12 13
398 332 100 8 18 18
398 333 100 9 19 19
398 333 101 6 16 16
399 333 100 8 18 18
399 333 101 7 17 16
398 333 102 4 14 13
398 334 101 7 17 16
399 334 100 8 18 17
399 334 101 7 17 16
399 335 101 7 15 16
398 334 102 6 14 16
398 334 103 4 12 14
398 335 102 6 14 16
398 335 103 4 12 14
399 334 102 6 14 16
399 335 102 7 15 16
399 335 103 5 15 16
392 330 104 9 19 19
392 331 104 9 19 19
392 331 105 9 19 19
393 331 104 8 20 19
392 331 106 10 20 19
392 332 104 9 19 18
392 332 105 9 19 18
393 332 104 8 18 17
393 332 105 9 19 18
393 333 105 8 18 18
392 332 106 11 21 22
392 332 107 10 20 20
392 333 106 9 19 19
392 333 107 9 19 19
393 332 106 9 19 19
393 333 106 9 19 19
393 333 107 10 18 19
392 334 107 9 17 18
393 334 106 10 18 19
393 334 107 9 17 18
393 335 107 8 18 18
394 332 104 7 17 17
394 332 105 7 17 17
394 333 104 7 17 17
394 333 105 7 17 17
395 332 104 5 15 16
395 333 104 7 17 17
395 333 105 7 17 17
394 333 106 9 19 19
394 334 105 7 17 17
395 334 105 8 16 17
394 334 106 9 17 18
394 334 107 10 18 19
394 335 107 9 17 18
395 334 106 9 17 18
395 334 107 8 16 17
395 335 106 8 16 17
395 335 107 8 16 17
392 334 108 10 18 19
392 334 109 10 18 19
392 335 108 9 17 18
392 335 109 9 17 18
393 334 108 10 18 19
393 335 108 9 17 18
393 335 109 8 18 18
392 335 110 9 19 19
393 335 110 10 20 19
394 335 108 9 19 18
394 335 109 9 19 18
396 333 104 6 16 15
396 333 105 7 17 16
397 333 104 6 15 14
396 334 104 7 16 15
396 334 105 8 16 16
396 335 105 8 16 16
397 334 104 5 14 13
397 334 105 7 16 15
397 335 104 5 14 13
397 335 105 7 17 17
396 334 106 8 18 18
396 335 106 7 17 17
396 335 107 7 17 17
397 335 106 9 17 17
398 334 104 3 11 11
398 335 104 3 11 11
398 335 105 6 16 15
384 332 112 5 15 14
384 333 112 6 16 15
384 333 113 6 16 15
385 333 112 5 15 14
384 334 112 5 15 14
384 334 113 6 16 15
385 334 112 6 16 15
385 334 113 6 16 15
385 335 113 6 16 15
384 334 114 7 17 16
384 334 115 8 18 17
384 335 115 7 17 16
385 334 114 6 16 15
385 334 115 7 17 16
385 335 114 7 17 16
385 335 115 9 17 17
386 333 112 7 16 15
387 333 112 8 16 16
386 334 112 7 16 15
386 334 113 7 16 15
386 335 113 7 16 15
387 334 112 8 16 16
387 334 113 7 16 15
387 335 112 8 16 16
387 335 113 7 16 15
386 334 114 8 16 16
386 335 114 7 16 15
386 335 115 9 17 17
387 334 114 8 16 16
387 335 114 8 16 16
387 335 115 7 17 16
384 335 116 7 17 16
385 335 116 6 18 17
386 335 116 7 17 17
388 334 112 7 17 17
388 335 112 7 17 17
388 335 113 6 16 16
389 335 112 7 16 19
390 335 112 8 18 18
390 336 111 9 19 19
391 336 110 9 19 19
391 336 111 9 19 19
391 337 110 9 19 19
391 337 111 9 19 19
391 338 111 9 17 17
398 336 103 5 14 13
399 336 102 7 16 15
399 336 103 6 14 16
394 336 107 8 16 17
395 336 107 7 17 17
393 336 109 8 18 18
393 337 109 9 17 17
392 336 110 10 18 18
392 336 111 11 19 19
392 337 110 10 18 18
392 337 111 10 18 18
393 336 110 9 17 17
393 336 111 10 18 18
393 337 110 9 17 17
